527.871460 527.830261 526.826233 526.156494 525.247742 524.509766 524.591858 524.749634 524.933289 525.094421 524.760864 524.213806 523.571350 524.187500 524.080994 523.643738 523.885193 523.691406 523.292847 523.448975 524.337646 524.321106 524.537537 525.020081 524.543518 524.974426 525.303528 524.903931 523.217102 522.181458 521.274780 519.264709 517.594727 516.273254 515.475403 514.620483 514.360474 514.606323 515.343506 515.240967 515.746948 515.575806 515.280457 513.896912 513.053223 512.403564 512.362549 512.104309 511.706970 511.701141 511.857391 511.453979 510.960846 510.709747 510.434998 510.866669 511.107391 511.760101 512.071350 511.769531 510.764893 509.698029 507.840729 507.580933 506.438171 505.153290 503.609558 502.372040 501.622284 499.751923 498.519562 496.953247 495.793060 494.213104 492.821045 491.786804 491.374573 490.737671 491.217102 491.054749 491.394470 491.101044 491.259766 491.451447 492.568970 492.384216 492.718475 493.059113 492.542358 492.420288 492.889679 494.328156 495.457245 496.751556 497.582977 498.581055 500.165100 500.396393 500.211761 500.538574 501.000092 500.524841 499.637573 499.270660 497.911499 498.470184 498.693390 497.729248 496.914917 497.006409 496.732178 496.774597 496.598297 497.086792 497.688293 497.902222 499.308167 500.852234 501.977661 503.529388 505.062042 505.720245 506.599792 506.978882 506.840149 506.606140 505.814331 505.972046 505.918732 505.820404 505.008942 504.335724 504.164642 504.763275 505.484955 506.461517 506.927795 506.770874 507.577026 507.412994 506.130371 505.709351 504.849457 503.537384 502.842163 502.304901 502.149048 502.457275 503.387268 502.904419 504.184937 505.587067 508.044373 509.351959 511.018494 512.181641 511.642273 510.235413 509.610596 507.973175 506.667450 505.893738 504.604675 504.712677 505.171173 505.145325 506.199097 506.627625 507.259857 507.394897 507.696594 506.717316 504.832397 503.159821 501.350372 499.158081 497.407288 497.428650 497.070557 496.987427 498.153229 499.373291 500.094116 500.584717 501.877289 502.996429 503.851379 504.782776 505.791504 506.209534 506.749481 506.810150 507.081238 507.361603 507.121216 507.012054 507.168945 507.433075 508.332977 508.930145 509.099060 509.319641 509.465576 509.032684 509.175110 509.103760 508.153717 507.101959 505.435577 503.992767 503.005951 501.099518 500.356750 499.502167 498.718994 497.529510 496.994293 497.360535 496.864960 496.883484 496.662445 496.038696 495.662262 495.338959 494.950317 495.251495 494.409241 493.561646 493.487823 492.844635 493.404877 494.011566 494.166962 494.200378 495.249237 495.471466 496.486938 498.108673 498.933411 499.630920 500.424927 500.941315 501.975922 502.552826 502.884216 503.130554 502.916229 502.530090 502.510193 503.341858 503.819916 504.061523 503.880585 504.315857 503.739471 503.647278 502.607147 502.304382 502.546906 503.516876 503.808899 504.941986 505.946381 507.035156 508.757507 509.878296 510.923462 511.336182 511.167969 510.278961 509.024902
527.841919 527.336060 526.873352 525.571838 525.783325 525.391846 525.159729 525.263062 525.645264 525.431213 524.431580 523.957947 523.739319 523.930542 523.388184 524.120728 524.479736 524.122803 523.955505 524.833069 525.042725 524.656006 524.563171 524.762329 524.570251 524.745483 523.969055 522.841614 522.439087 521.303772 519.904663 518.822205 518.024780 516.260010 515.245605 514.252808 514.851074 515.460876 516.122009 515.909241 516.066101 515.457642 514.264160 513.600891 512.347839 511.496796 511.240753 510.744202 511.141602 511.469238 511.165375 511.218628 511.022858 510.446442 510.005035 509.886627 509.587921 509.865631 509.620331 510.401855 509.486786 508.383240 506.778351 505.416168 504.361542 503.450226 501.707062 500.538910 499.748810 498.819824 497.537201 496.488922 495.160492 494.005524 492.771973 491.071136 490.466980 490.655579 490.518646 491.033508 490.595398 490.260834 490.975372 492.032593 491.863129 492.283356 492.671417 492.763763 493.464142 493.835297 494.366699 495.470642 496.078033 497.329224 498.332092 499.487854 499.716644 499.558502 500.433319 500.675323 500.949341 500.701294 500.047028 499.113434 498.808777 498.405426 498.304199 497.158752 496.753784 496.985260 496.449036 496.708130 497.030029 497.342621 497.550812 498.785736 500.117950 501.049011 501.925171 502.954926 503.789673 505.561371 505.935852 506.543335 507.439453 506.569183 506.422638 505.863251 506.194000 505.066986 504.527252 504.097534 504.852264 504.592804 505.660126 506.415131 507.166870 506.772308 506.274170 505.804718 505.783417 505.819702 504.397217 503.877625 502.796417 502.565582 502.914185 503.280853 503.370819 503.358032 504.001434 505.358154 506.655579 507.968323 509.503571 510.300201 509.808990 508.539917 507.980469 506.286987 505.384766 504.294586 503.265869 504.132874 504.376221 505.059357 505.991699 506.021149 506.284058 506.470825 505.363464 504.808228 503.323517 502.079590 500.458862 499.442719 498.162506 497.864685 497.688202 498.713226 499.304749 499.636047 500.368134 501.336609 502.449066 503.644562 504.335602 505.417786 505.422394 506.444092 507.496429 507.839264 508.415771 507.750214 507.408295 507.513031 507.178589 507.503723 508.299255 508.874420 509.304047 509.306335 508.907715 508.325836 507.867706 508.023712 508.291534 507.393738 506.033295 504.950348 502.951782 500.687012 499.530670 498.695374 498.746277 497.386139 497.812744 497.769623 497.358063 497.170532 496.206116 496.193237 495.333618 494.608368 494.902679 494.301544 493.339630 492.753326 492.849823 492.654510 494.195282 494.064941 494.279999 494.825256 494.685303 495.579926 496.555939 497.340088 497.616089 499.116150 500.103760 500.600189 501.790649 502.866638 503.591248 502.627167 502.785736 501.996521 502.443481 502.693542 502.962708 503.169342 503.170105 503.596130 503.324280 502.259186 502.366425 502.330841 503.168365 504.167145 504.605560 504.934021 505.788177 506.868011 507.648468 509.012970 509.636230 510.028137 509.158356 508.366974 508.082458
527.348816 527.072327 526.905884 526.347473 525.288696 525.261780 525.255371 526.111084 525.886902 524.968140 524.429443 523.824890 523.628052 524.090698 524.280212 523.923889 524.201416 524.092163 523.948853 524.406433 524.030823 524.188843 524.171997 524.197815 524.025635 523.128296 522.907288 521.971863 521.161743 520.662415 519.755127 518.375671 516.880188 516.101746 515.303589 514.530029 515.264587 515.575256 515.479187 515.888977 515.603027 514.432190 513.684998 512.379700 511.684601 511.227386 510.764221 510.298309 510.814117 510.860321 511.411102 511.136017 510.543488 509.495697 509.101410 508.560669 507.815216 508.136475 508.385315 509.235229 508.425415 507.078217 505.337952 503.789215 502.823242 501.483276 500.255920 499.176880 497.696411 496.893707 497.074799 496.097260 494.554993 493.166260 492.041595 491.173767 491.200531 491.252045 490.270721 490.326294 489.329742 489.766083 490.904205 491.452667 492.230499 492.623596 492.876129 493.357300 493.574249 494.524780 495.342194 496.641846 497.332275 498.144714 498.381409 498.954193 498.805939 499.068512 500.214935 500.256012 500.702423 500.373047 499.838135 498.825043 498.663422 498.648315 497.716736 497.080750 497.584991 496.876556 496.996033 496.484772 496.281891 497.395782 497.865112 499.296814 500.053741 501.583710 501.880798 502.529510 503.591003 504.546783 506.045471 506.577545 506.284790 506.173828 505.445251 505.059143 504.964355 504.347290 503.720520 504.393188 504.787140 505.500641 505.662445 506.364136 506.673828 506.430573 506.464661 506.671417 505.963898 505.116119 505.161072 503.927490 503.364410 502.899811 502.872498 503.209076 504.046173 504.218903 504.763275 505.143616 506.357117 507.358398 507.636414 508.430634 508.223389 507.306763 506.106140 504.778198 504.071625 503.257019 503.513489 503.616089 504.041779 504.300232 504.480469 504.041504 504.224243 504.105164 503.695312 502.957855 502.336761 502.012299 501.297760 500.617401 499.095398 498.987396 498.939636 499.089569 498.898376 499.616180 500.055573 500.987946 501.975830 502.930420 503.620392 504.708344 505.896759 507.214020 507.872437 509.210114 508.734222 508.722595 507.636475 507.267151 508.190094 508.544128 509.740112 509.702301 509.230865 508.712250 508.103516 507.852051 507.970764 509.264557 509.000122 507.799896 507.089508 505.465973 502.718475 500.868958 499.869904 499.271301 498.496307 498.385315 497.795319 498.143463 497.512817 496.622772 495.516876 495.435822 494.339539 494.518127 494.395844 493.180115 492.899353 492.243927 492.911102 493.627869 493.776794 494.254913 494.989136 494.879242 495.429657 495.203461 495.736511 496.151764 497.706024 498.833252 499.226532 500.197510 502.459045 503.795807 503.584045 502.371490 502.508270 502.410065 501.784912 501.962219 502.013458 502.231415 502.300873 502.641113 502.805695 502.272247 502.205994 502.739746 503.516663 504.877838 504.803711 505.402954 506.112579 506.791779 507.399689 508.357788 508.311279 508.539703 507.818604 507.424835 506.793518
526.736084 526.779663 525.987183 525.957031 525.693604 526.010010 525.389465 525.870605 525.640930 524.642456 524.203674 524.368469 524.068420 524.642151 524.179810 523.446655 522.901245 523.436584 523.131470 523.267761 522.986023 522.766785 523.248474 523.184753 523.004395 523.141052 522.056335 521.899597 521.606384 520.975952 519.696838 517.650879 516.838562 515.808289 515.022644 515.434326 515.420776 515.593262 515.593201 515.144836 514.891541 513.923767 512.983521 512.322205 511.455261 510.508118 510.664703 511.213989 510.925354 510.457520 510.422302 509.882141 508.976318 508.011841 507.639374 507.219666 507.004913 507.174927 507.339600 507.902466 507.043518 505.391785 503.662964 502.926270 501.659241 499.795410 498.656677 497.901367 497.747437 497.067505 496.165131 495.368469 493.731995 492.070831 491.480652 491.192535 490.896881 490.088226 489.949768 489.792114 489.430511 489.603455 490.865967 491.077057 492.001648 492.167023 493.324371 493.036560 494.041718 495.183136 496.080383 496.780304 497.576233 498.080536 498.554535 498.698364 498.784576 499.409821 499.529327 499.590607 500.071167 499.749420 498.819550 498.689972 498.235077 498.503479 498.301270 498.353546 497.675995 497.318115 497.101593 496.477020 496.739075 497.525421 498.279297 499.494873 500.632721 500.990051 501.443329 501.978027 502.683319 503.930786 504.748535 505.548248 505.267548 504.905396 504.540253 503.596680 502.958679 503.340546 503.556976 504.102417 504.793579 505.076752 505.253540 505.476501 505.940704 506.066132 506.403229 505.821930 505.364136 504.982300 504.337402 502.998810 502.553680 502.957886 502.725006 503.450439 503.731049 503.549072 504.271210 504.500458 505.651245 505.958069 506.942261 506.689819 505.971741 505.451141 504.416443 503.510620 502.568298 501.926453 502.292175 502.726166 503.237854 503.341736 502.979492 503.014893 502.332764 502.520813 502.244843 502.010437 501.248383 500.632751 500.200562 499.794006 499.216736 498.677887 498.450470 499.161011 498.668152 499.640289 499.975891 500.609253 501.852234 503.249268 504.183960 504.882172 507.137573 507.689911 508.606354 508.715637 508.569153 508.259155 507.521942 508.660492 508.894623 509.571991 509.311768 508.528778 508.395325 508.455933 507.808807 507.867462 508.272430 508.133820 508.359070 507.379730 505.958588 504.732849 502.311310 500.872375 500.835022 500.161133 499.056030 498.592651 498.553955 498.282135 497.174164 496.139282 495.165314 495.034607 494.471436 493.990662 493.770691 493.079346 492.847412 493.019714 493.445831 494.038361 494.564819 494.495422 494.143890 494.211456 495.010071 495.168365 495.729523 496.979828 497.498413 498.829407 499.679688 501.204193 502.124084 503.266693 503.193390 502.770233 502.296326 501.569702 501.218567 501.529724 501.761566 502.383789 502.985046 502.352631 502.336304 502.274628 502.054901 502.989532 503.617462 503.632782 504.268768 505.067902 506.209473 506.884644 507.667572 507.338196 508.120361 507.601898 506.631927 505.819092 505.006073
526.007385 526.243896 526.151367 525.823364 525.361572 525.182495 525.392639 525.510376 525.480652 524.920532 525.025024 524.956299 524.115417 523.126770 522.924438 522.609436 522.047424 522.132202 522.746277 522.879883 522.223999 522.107117 522.059998 522.606812 522.378418 522.709717 522.730042 521.933960 521.615662 520.297852 519.052490 517.887939 516.125000 515.636047 515.661194 515.919983 516.108459 515.626709 514.931763 514.427490 513.787964 512.851379 512.495667 511.507416 511.515015 510.932251 511.126801 511.087494 510.390594 509.330719 508.749329 509.036041 508.574310 507.717438 506.667542 506.041626 505.847229 505.328491 505.468170 506.031250 505.110962 504.540924 502.504181 501.554504 499.646606 498.580658 497.956818 497.329376 496.413818 495.923553 495.314819 494.404572 492.881683 491.978271 491.126556 490.338348 490.202179 490.167480 489.748901 489.623108 489.452850 490.045471 490.197601 490.917908 490.993408 491.563293 492.166565 492.950836 493.840729 494.843170 496.022552 496.946564 498.003967 498.916229 498.253815 498.291748 498.086304 499.148682 498.746735 498.893005 499.350067 498.991852 498.951721 498.722595 498.922791 499.074707 499.622772 499.125702 498.463043 498.270630 497.677490 497.115173 497.784912 498.192383 499.158813 500.465179 500.776886 500.973297 500.869843 501.464478 502.164337 502.839539 503.820953 503.664612 503.098907 503.520874 502.471985 501.996277 502.160614 503.131927 503.472595 503.529236 503.835846 503.697296 504.107788 504.437347 503.942047 504.293335 504.782043 505.071594 504.591003 503.591492 502.601379 501.683960 500.983032 501.033325 501.956482 502.178925 502.315277 503.097687 503.803070 504.291168 504.843231 505.602936 505.233673 505.257660 505.119843 504.640625 502.400269 501.030426 500.486938 500.877747 501.637177 502.160217 502.514435 502.608612 501.597595 500.894165 501.070648 500.734924 500.122101 500.320007 500.394897 499.874908 499.524841 499.017670 498.622772 498.235077 497.915161 497.914093 498.208466 499.252472 499.833038 501.237640 501.763397 503.180756 504.260315 505.914185 506.931549 508.404022 508.718048 508.544647 508.673157 508.932007 509.110687 509.357849 509.303955 509.504486 509.248871 508.669708 508.402252 508.269531 507.849823 507.478790 507.755035 508.122650 507.534454 507.187561 506.308899 504.337128 503.475342 502.271301 501.069183 500.891876 500.067108 499.842163 498.769501 498.094391 497.219360 495.692535 494.355774 494.652588 494.316254 494.254517 494.308655 493.260101 493.525909 493.889191 493.191742 494.382996 494.459686 494.518402 494.685638 494.452789 494.799896 495.305054 495.771210 496.761444 497.140839 498.554199 499.783875 501.515839 502.490570 502.455780 502.434845 502.059021 501.577026 501.581848 501.440552 501.698395 501.504364 501.906158 502.321655 502.040100 501.972992 501.978363 502.367981 502.394073 502.516663 503.158081 503.953491 504.055145 504.907654 506.961395 507.074341 507.159088 506.577423 506.104248 506.036377 505.167877 504.021240
526.142151 526.297302 525.528748 525.470398 525.128906 525.016113 524.205383 524.421143 524.736755 524.378784 523.698242 522.833313 522.221558 521.749634 521.308838 521.221191 520.932312 521.143860 521.488342 521.476868 520.593445 520.464478 520.206726 520.550476 521.315186 521.628723 522.046814 522.574341 521.293945 519.681030 517.237366 515.588745 515.013794 515.230957 515.732544 516.196899 515.698120 515.221558 513.630859 512.781982 512.668274 511.807983 512.035217 511.148499 511.125092 510.708160 510.281342 510.543854 509.898895 509.154968 508.111420 506.971649 506.935486 505.858795 505.250153 504.590820 504.133514 503.517609 504.602234 504.366547 503.610718 502.123779 501.244476 500.374817 499.388214 497.713684 496.922699 496.119843 495.229401 495.621674 494.177490 493.272461 491.652100 491.148499 490.982697 490.739838 489.820892 489.289368 489.502625 489.422729 489.882324 489.831329 490.314148 490.480621 490.985962 490.737640 491.033295 491.620300 492.988953 494.162323 495.373901 496.416840 497.798096 498.586243 498.400116 497.891144 497.797150 497.903900 498.887177 499.110809 498.969635 498.672455 498.689728 499.011261 499.303680 499.190033 499.894806 500.191742 499.852478 498.727539 498.034332 498.071106 498.204041 499.113281 499.138885 500.131866 501.090240 501.249054 500.926605 501.055908 501.756195 501.944061 502.569763 502.128876 501.541107 501.520508 501.111755 501.201965 501.572754 501.488098 501.937683 502.610443 502.886780 502.071228 501.695282 501.787537 502.129059 502.892578 503.592529 504.467712 503.727173 502.270264 500.793701 499.485809 498.356476 498.268463 499.016113 500.024872 500.905579 501.450012 501.599487 502.136475 502.617950 503.321045 504.358063 504.587738 504.015320 502.614960 500.641510 498.968079 498.188202 499.101318 499.885529 500.326385 501.191467 500.558594 500.248047 499.376923 498.783203 498.670563 498.707550 498.770508 498.876678 498.550934 498.066711 497.240509 496.801849 497.550354 497.222015 498.133301 498.690887 499.076294 499.782043 499.931183 501.386810 502.220642 504.397217 506.575531 507.670593 508.352814 508.789642 509.144135 508.984375 509.401703 509.347839 509.455353 509.427856 508.869995 508.911438 508.661407 508.204620 508.057983 507.173157 507.846252 507.945709 508.495178 507.854218 508.031830 507.195831 506.638062 505.797302 505.356598 503.553986 502.234741 501.453644 500.843262 499.829987 498.396545 496.685150 494.773468 494.427948 494.441223 495.268463 495.097778 495.037201 495.048615 494.652039 493.870270 494.182800 494.175903 494.672119 495.619904 496.030548 495.005829 494.691925 494.986237 495.029236 495.933899 496.686981 498.315491 499.489868 501.081573 501.221588 501.274200 501.772675 501.140839 501.256348 500.351959 499.853516 500.823914 501.202942 502.281494 502.135559 501.863464 501.264832 501.263306 501.418335 501.381744 501.142639 501.239868 501.799225 503.106262 504.384949 505.777466 506.600037 506.474762 505.896210 505.790863 505.628906 503.955597 502.708008
524.993347 524.829041 524.634583 524.010437 524.577576 523.609375 523.572632 523.557129 523.937195 523.293640 522.260010 522.074097 520.951843 520.203796 519.845703 519.439270 519.120911 519.076477 519.116272 519.385681 518.845642 518.907349 519.094788 519.644165 520.239685 521.448792 521.416504 521.856506 521.017273 518.716125 516.269958 514.896301 514.470642 515.008728 515.141418 515.595276 515.055359 514.155151 513.873169 512.696228 511.944489 511.669983 511.307556 510.720581 510.827698 510.330139 510.493347 510.475281 510.030426 508.350403 506.848907 506.013428 505.090942 504.122803 503.438354 502.232239 501.768372 502.680786 502.998962 502.297211 501.986145 501.319885 500.436768 499.861633 498.355103 497.313538 495.929260 495.438538 494.672882 493.733124 492.814209 491.620026 491.129395 490.238831 489.625153 489.236633 489.485901 488.982086 489.304138 489.202087 489.509155 489.662018 490.119446 490.720978 490.476410 490.195221 490.481232 490.364319 491.639130 493.379730 494.533783 495.859985 497.526428 497.147430 496.913177 497.100922 497.257416 497.504578 498.435181 498.590302 498.211487 498.452454 498.300201 498.353607 498.646179 499.620026 500.641815 500.554047 499.950470 499.432373 498.247803 498.168823 498.863159 499.488739 500.659393 501.205963 501.542206 501.010132 500.615173 500.544983 500.423645 501.301453 500.507172 500.666962 500.733582 500.467010 500.494995 500.369202 500.074707 500.415283 500.407379 500.722900 500.051514 499.466553 499.409363 499.072357 499.712097 501.153503 502.370880 502.880432 501.462189 499.595306 497.639587 496.268738 495.354553 496.433289 497.602600 497.466797 498.806732 499.170898 499.007690 499.743561 500.726929 502.812592 504.372467 504.473602 502.398254 499.730377 497.441193 496.263000 496.098358 497.185852 498.048676 499.284363 499.031219 498.482574 498.113708 498.149780 496.840271 496.394989 496.724426 497.325439 497.194122 496.640533 495.920502 495.083832 495.691589 496.016113 496.988037 497.294067 498.054504 498.263336 498.850647 499.864929 501.113098 502.694153 505.029510 506.979279 507.976990 508.151978 508.361633 508.716614 509.365234 509.127625 509.547119 509.903931 509.026215 508.680634 508.261841 507.718048 507.498352 507.347229 507.379333 507.905701 508.576538 508.157959 508.750061 509.153900 509.223358 509.131592 508.198334 506.683777 505.156647 503.981689 503.024017 502.325958 500.873901 498.550385 496.545349 495.213959 494.210663 494.623962 496.029633 496.395721 495.963440 495.940491 494.894531 494.976013 495.039978 495.195465 495.528442 496.425720 496.306335 495.236328 494.787354 493.849945 493.823975 495.059601 496.411652 498.056244 498.688782 500.023224 500.433289 500.799561 500.187012 500.003143 500.229279 499.468079 499.864532 500.314026 500.963654 501.851715 501.988525 501.301331 501.063141 500.747223 500.026276 499.169647 499.464935 499.898773 500.434326 502.424408 503.025360 504.322510 504.969635 506.064789 505.545197 505.341614 504.305298 502.684479 501.211121
524.543091 523.762268 523.171631 523.315369 523.199829 522.514526 523.132812 522.640381 522.709351 521.521729 520.794067 519.651611 518.936584 518.266479 518.208130 517.994141 517.817810 518.368530 518.644287 518.226379 517.987305 518.501099 518.721741 519.320068 520.554871 521.461365 521.164551 520.388367 519.130432 516.936035 515.331238 514.741028 514.171753 514.333984 514.614014 514.361633 514.254578 514.122009 513.147522 512.390564 511.779144 511.265991 510.970428 510.755829 510.715485 510.260132 509.567535 509.047516 508.838074 507.330780 506.225098 504.974335 503.846680 503.349487 502.507141 501.446442 501.044556 501.418030 501.286438 501.618073 501.082367 500.180450 499.851013 498.899658 498.097107 496.505646 495.191925 494.378845 494.326447 493.148010 492.167358 491.632874 490.474670 489.767517 489.153503 488.624512 488.662872 488.459442 488.844360 489.067719 489.216034 489.007843 489.594879 489.851654 489.813873 489.293365 489.250519 489.599701 491.072968 492.571838 494.601257 496.146088 496.543182 497.108032 497.210632 497.639984 497.172211 498.177277 498.797180 498.562561 498.620361 498.303192 497.981598 498.561493 498.934143 500.179565 500.265747 500.000885 499.871460 498.592712 498.110138 498.368073 498.815826 500.352051 500.835541 501.253693 501.412048 501.234833 500.505554 500.035553 501.128601 500.841125 499.905670 499.955658 500.133240 500.115967 499.713654 499.383392 499.182251 499.316803 499.353607 498.832336 498.352112 497.819366 497.656555 498.054291 499.237518 500.618469 500.672821 500.257935 498.590637 496.763916 495.720612 494.436707 494.379364 494.614044 495.308228 496.383514 496.927551 497.431885 498.042358 499.543030 500.445679 501.457581 502.166473 501.022552 498.788666 496.502380 495.675690 495.087738 495.210907 496.200470 496.313812 497.447845 497.955841 496.815155 496.203369 495.840210 495.350800 494.909454 495.221863 495.295654 494.960236 494.261993 494.447571 493.948120 494.042786 494.601013 496.101593 497.374146 498.019745 498.100159 499.498596 500.530823 502.091034 503.475616 504.850708 506.040283 507.139221 507.836792 508.451447 508.921509 509.182861 509.810089 509.325836 509.159973 509.217957 508.631012 507.954468 507.631104 506.845306 507.511383 507.627625 508.075989 508.404266 509.045929 509.933228 510.141754 510.088013 509.619904 508.288940 506.990295 505.402832 504.699005 503.583496 502.144775 500.494171 498.121887 496.567566 495.661530 495.584381 496.409882 497.024445 496.815979 496.591064 495.798737 496.149872 495.423218 495.916016 496.752960 496.302277 496.637909 495.544739 495.216217 494.183502 494.508667 494.809967 495.089386 496.297852 497.421326 498.133362 499.107788 499.160583 498.994720 499.044128 498.492676 498.420532 498.955048 499.252197 500.273224 500.721863 500.842529 500.589600 500.476288 500.047821 499.123779 499.012238 498.150970 498.589905 499.185883 500.514404 501.306274 503.382324 504.418762 505.053864 505.355042 505.041718 504.007599 502.658020 501.070892 500.172699
523.128052 522.688293 522.716064 522.901123 522.787720 521.961426 521.981201 521.164795 521.164246 519.691406 518.487183 518.071411 517.756958 517.119934 517.724121 518.082825 518.058655 517.972961 517.902039 517.681458 517.754028 517.500854 518.647461 519.139282 519.351379 519.492798 519.741211 518.957947 517.273010 515.547974 514.195496 513.722168 513.341187 513.526733 513.775757 513.723022 514.191406 514.018921 513.258423 512.596619 511.664124 510.832916 510.382507 510.900482 509.746765 509.441467 508.988617 508.638885 507.696625 506.691437 505.469543 503.992401 503.411407 502.111053 501.668854 501.288330 501.480682 501.095642 500.921783 500.872040 500.057007 500.098236 498.854187 498.654602 497.565308 496.032257 494.679321 494.142395 492.773346 492.283661 492.118561 491.444031 490.142609 489.532471 488.950287 488.123505 487.764160 487.992554 488.065399 488.235840 488.741882 488.707306 489.461945 489.048065 489.629028 489.269562 489.339569 489.960205 491.385956 493.723358 494.349854 495.723328 496.386108 496.419342 496.907532 497.221100 497.818481 498.502960 498.880371 498.798523 498.206390 497.410278 497.908356 498.145996 499.051605 499.170959 498.946472 498.965240 498.794861 498.618591 498.170685 498.349915 499.239227 500.006470 500.758179 500.858215 500.827789 501.344208 501.266144 501.561859 501.229462 500.649017 500.320435 499.653900 499.831635 499.585876 499.535645 498.930542 498.645386 498.526520 498.143250 497.833557 496.986603 496.436737 496.585999 496.852722 497.570587 498.054138 497.278809 496.767883 496.156250 495.016571 494.248444 493.584747 493.820862 494.434021 494.654236 495.641876 496.689117 497.415955 497.384796 498.393982 498.455536 499.102600 498.882050 497.489532 496.283600 495.127502 494.334869 494.339752 494.542725 494.718445 495.207703 495.922943 495.382233 495.650330 494.785980 493.714172 493.362488 493.428314 493.459106 493.279572 493.100800 493.254852 493.219482 493.187592 493.888306 494.184845 495.898926 496.498474 496.952759 497.959747 498.508575 500.705658 501.559021 502.676239 504.571259 505.446442 506.531158 507.580200 508.528259 509.087280 509.839020 509.939728 509.002075 509.281982 508.666809 507.613403 507.293274 506.979706 506.709442 507.457977 507.582825 507.886841 508.076996 509.404816 509.738129 510.098206 510.633698 509.227600 507.423615 506.580231 505.657990 504.882874 503.263824 501.813019 499.858887 499.071869 497.635895 497.076172 496.981812 496.987976 497.306305 496.961578 497.100403 497.217194 497.063812 496.472809 496.286957 496.133698 495.704956 496.154846 495.652557 494.779449 495.134399 494.952881 494.792114 495.452454 496.872589 497.448700 498.068695 498.542542 498.923859 498.275574 497.875336 498.035675 497.900787 498.087006 498.321259 499.101440 499.597015 499.863617 500.401764 499.640961 499.228424 498.844818 499.295288 498.921478 499.950287 499.932343 500.853943 501.997192 503.350891 504.161804 504.367035 504.837769 504.172577 502.765961 501.657440 500.179596 499.841125
522.564819 521.980103 521.375061 521.505371 520.862183 520.695923 519.902954 519.864868 519.109314 518.296204 517.591370 516.760986 516.714966 516.002747 516.594910 516.579773 516.576050 516.431152 516.861816 517.652161 517.604126 517.322754 517.656677 518.110840 518.023743 517.759277 516.872253 517.081177 515.865540 514.292847 512.371704 511.468323 511.974487 512.123596 512.406494 512.960022 513.257141 512.896606 512.157715 511.161621 510.808258 510.356842 509.524841 509.374207 508.959808 508.641144 508.765320 507.687653 507.138489 506.094635 504.428497 503.106934 502.545135 501.987457 501.258759 501.458313 501.310028 501.205383 500.264435 499.561401 499.508545 498.873108 498.882385 497.839691 496.904724 495.181549 493.727325 493.593872 493.384888 492.267334 491.614319 490.704803 489.906189 489.154602 488.259186 488.268555 487.436401 487.489929 487.421844 487.414276 487.695770 488.381958 488.885712 489.263702 489.396088 490.008759 490.399628 490.868805 491.864685 493.488495 494.638519 495.828644 496.312286 496.662018 497.179840 497.293121 497.975403 498.735779 498.809601 498.673492 497.707947 497.343964 497.438995 497.313049 497.869202 497.925629 498.355804 498.233398 497.975464 497.270142 497.742126 498.657776 499.136047 499.347839 500.644775 500.992493 501.437714 501.240295 501.532623 501.526520 501.590271 500.444153 500.395386 499.898468 500.201721 499.181702 498.976074 497.990631 497.631866 497.559692 497.792664 497.452728 497.203583 495.743164 495.486023 495.635376 495.243378 494.989624 494.753265 494.486542 494.140961 493.494110 492.707672 493.131653 492.751526 493.182037 494.268555 495.031555 495.656403 495.250916 495.624207 495.557953 495.245453 494.722351 494.734100 494.591431 493.690643 492.365021 492.099304 492.210022 492.218475 492.635437 493.389343 494.408020 494.265808 493.201355 493.013824 492.081207 492.296875 491.531952 492.033569 492.388550 492.628876 492.086487 492.259277 492.414856 493.058014 493.700745 495.245636 496.246521 496.708252 497.632172 499.014282 499.878052 501.023254 501.627075 503.131592 504.368927 505.559967 506.517883 507.728943 508.180206 508.341736 508.449127 507.915619 508.062897 507.915344 507.105774 505.884491 505.583160 506.506897 507.404633 507.158997 507.592987 508.737640 509.172150 509.634460 510.220184 509.382935 508.318787 507.336395 506.013367 504.833252 504.390228 503.517700 502.104431 501.395935 500.009979 498.272217 497.752441 498.349976 498.468933 498.108704 498.479370 499.054596 498.483673 497.978271 497.319244 497.616089 496.937531 496.571625 496.034790 495.868134 495.740082 495.529541 495.189941 495.108765 496.063293 497.094849 496.850861 497.587463 497.758789 497.826324 497.821533 497.668213 497.331696 497.430023 497.029053 496.998627 497.286377 498.122986 498.469971 498.388855 498.952972 499.235535 499.142151 499.723785 499.496429 499.561401 499.352020 500.653992 502.301727 502.830475 503.464264 503.838531 502.868073 502.517365 501.824524 501.160370 499.976257 499.253296
521.952087 520.519714 520.017761 519.210083 519.048584 518.085327 518.088562 517.687012 517.383179 516.459290 515.762756 515.178345 514.543762 514.770935 514.519409 514.525635 515.710449 515.789368 516.633423 516.807495 516.859009 516.602234 516.651428 517.007996 516.590454 515.484863 515.133118 514.615784 513.106934 511.286560 510.301239 510.218323 510.479828 510.753632 511.621765 511.790070 511.563293 511.130310 510.877594 510.281281 509.530670 508.795959 508.445679 508.489685 507.528717 508.018982 507.545013 506.766296 506.230408 505.250397 503.938721 502.421173 501.934265 502.063141 501.667206 501.606750 501.539856 500.605286 499.517151 499.538879 498.992004 498.951874 498.060669 496.762634 495.714752 494.586273 493.828644 493.199280 492.278076 491.845154 490.678864 490.073242 489.339752 489.025696 488.767059 487.815186 487.301453 487.287994 486.834320 486.662598 486.627563 486.770386 487.923828 489.328613 489.225677 489.804779 490.062225 491.044800 492.354828 493.255463 495.191345 496.067322 497.381226 497.502991 497.843567 498.234039 498.277161 498.898926 498.695160 498.042847 497.410431 496.873352 496.505463 496.226166 496.881744 496.803192 496.454987 496.109253 496.370544 496.376953 497.259949 497.055664 498.245483 499.509583 499.886200 500.487762 500.865967 501.366638 501.343353 501.846619 501.547668 500.362152 500.567719 500.584045 499.643433 499.494598 498.427612 497.428040 496.927704 496.993286 497.004700 496.802185 496.323914 495.029205 493.322601 492.715271 491.902039 491.864319 491.294250 492.235474 491.644745 491.257294 491.436737 491.348602 491.918854 492.428192 493.288605 493.550903 493.124451 492.412048 492.053284 490.932312 491.435333 491.832153 490.815887 491.342194 490.337189 488.842712 489.186615 489.237610 490.122223 490.558990 491.608917 492.360718 491.992615 492.064026 491.395294 490.931824 490.742981 491.184082 490.563507 491.516266 491.064941 490.714722 490.764679 491.384399 492.036804 493.165680 493.972015 495.354004 495.774780 497.116821 497.821411 498.877533 499.672333 500.925537 502.407349 503.931549 504.408203 505.078217 506.283417 507.063538 506.741852 507.707916 507.263428 506.743988 506.394104 505.250031 504.577606 505.009460 506.163910 506.353027 506.504913 507.114929 507.479370 508.522888 508.975006 509.125000 508.802979 507.650452 506.523651 505.425323 504.767761 504.455597 503.755096 502.707703 501.622070 500.725220 499.912964 498.931732 498.983307 499.171722 499.842773 499.881653 499.566650 499.377686 498.898407 498.394379 498.632263 497.888397 497.457977 496.654083 496.448578 496.229919 495.891052 495.579803 495.827484 496.253448 495.653320 495.888153 496.528809 497.036224 496.643402 497.109650 497.051208 496.464752 495.229126 495.622955 495.773804 495.512543 497.067688 497.046326 497.863800 498.650055 498.807861 498.955475 499.542358 499.583405 499.663361 500.089783 500.162872 501.520569 502.282776 501.921783 502.092072 502.004822 502.290527 501.350739 499.951477 498.888550 498.651245
519.853149 518.789917 518.211182 518.176453 517.171021 516.996643 516.882751 516.457092 515.553711 514.898743 514.279907 513.634583 513.371704 513.662537 514.051147 514.483215 515.233643 515.242371 515.814758 515.511597 515.882507 516.382690 516.080139 515.384338 514.339722 514.324219 513.068481 512.180359 510.538239 509.906372 509.297760 509.531281 510.306976 510.772888 510.932343 511.175659 510.758087 510.103607 509.029602 509.181122 508.825409 508.593536 508.600494 508.642914 507.563110 507.138794 506.471466 505.738129 505.146271 504.714508 503.258331 502.119263 502.136047 501.551727 501.624390 501.573517 500.830627 500.988983 500.662720 500.415619 499.573517 498.690918 497.507019 496.445160 495.513885 494.525513 493.695282 492.472076 491.698792 491.054077 490.638397 489.127411 488.583160 488.091187 487.963440 486.900421 486.515106 486.165710 485.726288 485.821716 486.175964 486.369415 487.088409 488.033203 488.383820 489.306274 490.397858 491.209534 492.594849 494.130249 495.602570 496.913483 498.094940 498.162659 498.445343 498.743805 498.179352 498.236511 497.711212 497.108429 497.125610 496.596985 496.109924 495.825226 495.573090 496.046173 495.846893 495.450500 495.040741 495.236359 495.348694 496.660004 497.589874 498.305481 499.285767 499.433258 500.206573 500.872192 501.459808 501.576752 500.379395 500.812744 500.546295 500.625641 500.284271 498.660309 497.367950 496.642395 496.572052 496.842560 496.422028 495.171265 494.005829 493.080902 491.865814 490.399414 489.956207 489.624451 489.594849 489.251434 489.742889 489.322784 489.968109 490.049133 490.473053 490.951294 491.479584 491.010834 490.213745 489.668518 488.601349 489.155579 488.707703 488.174835 488.098755 487.449738 487.070740 486.830444 487.102600 487.748138 488.669281 489.173340 490.306122 490.915131 490.557037 490.491119 490.160065 490.086060 489.605713 489.406799 489.725677 490.199341 489.542358 489.093231 489.613068 490.403564 491.715851 492.263000 493.734833 494.638367 495.122192 495.919281 497.029633 497.861267 499.165802 500.763092 501.503540 502.931366 503.457733 504.103455 504.239319 504.916992 505.545807 505.958221 505.498077 505.456726 504.760620 503.667145 503.819733 504.701721 505.765533 505.572388 506.704773 507.351715 507.453247 508.096893 508.608521 508.067810 507.553467 507.131653 506.693420 506.071625 505.389435 505.118683 504.207184 503.317871 502.937622 501.730621 501.181915 501.119202 501.519806 501.509155 501.053223 500.685242 500.233063 500.551453 500.778412 500.207611 499.751221 498.802826 497.539764 497.171356 496.495758 496.543518 496.449738 496.229614 495.771393 494.987030 495.312744 494.881287 495.738190 495.838043 495.685913 495.464325 494.654907 494.522125 493.681305 494.224091 494.360809 494.551605 495.626617 496.854584 497.516602 497.540833 498.222229 498.276184 498.382996 498.502045 499.075806 500.167969 500.858582 501.381439 500.634094 501.104950 501.226929 500.766449 500.085083 498.567902 498.164215 498.564514 498.818054
519.042969 518.094604 517.832947 516.899963 516.343872 516.237854 515.403259 514.428711 513.395142 512.426758 512.137939 511.881958 511.716187 512.584900 513.378967 513.878052 513.668945 514.401794 514.519104 514.375671 514.736816 515.189270 514.330017 513.809937 512.971008 511.865784 511.267731 509.585083 508.861084 508.188751 507.596680 508.049194 509.181061 509.844452 509.456482 508.792572 508.466705 508.636230 508.863312 509.017578 509.219116 509.212921 508.654449 508.692902 507.605774 507.556580 506.848083 505.349945 504.352661 504.072052 503.053101 502.047150 501.760010 501.937134 501.875702 501.307800 500.860077 501.038422 500.825958 500.843994 500.365997 498.772827 497.935638 496.572021 495.475067 494.399017 493.581421 492.195465 491.373901 490.550812 489.265320 488.035431 487.826111 486.676666 486.062988 485.313721 485.201599 485.254761 484.797394 484.449280 485.059509 485.455078 486.059265 486.610748 487.229584 488.242767 489.545746 490.756409 492.537872 494.620911 496.201324 497.136597 498.323334 498.686035 499.253113 498.766693 497.837494 497.426147 496.941162 496.534790 496.411774 494.806122 495.251312 495.504425 494.836548 494.267578 494.222961 493.268524 492.809814 492.887573 493.733704 494.643707 495.746552 496.799805 496.889282 498.330444 499.183319 500.403351 500.586365 500.601624 500.389984 501.382233 501.109161 501.046387 499.667053 498.790863 497.335297 496.381256 496.613586 496.160065 494.660858 493.759064 492.400909 491.094910 489.944214 488.396790 487.991028 487.456726 487.014130 487.613098 487.548828 487.803467 487.787415 488.079956 488.337738 489.332336 489.311066 488.375366 488.262695 487.568817 486.869873 486.396942 485.544617 484.375641 484.397308 484.056274 484.407623 484.679779 484.772034 486.406738 487.793762 487.874176 488.941010 489.606720 489.223297 488.811890 489.567505 489.100769 488.299866 488.143707 488.060455 487.397186 486.978271 487.138672 488.164124 489.456818 490.134674 491.641418 492.200714 493.256409 494.024475 494.670074 495.293274 496.496307 498.236664 499.028015 500.924316 502.613586 503.264648 503.741913 503.953613 504.150330 504.330658 504.223785 504.306519 504.006317 503.793915 503.533844 503.972656 504.658295 505.225647 505.883636 507.127960 507.160156 507.473236 507.553070 507.477783 507.774506 506.892944 506.783691 506.638306 506.342590 506.388519 505.162415 504.685486 504.056580 503.228882 503.164612 502.822418 503.052490 502.796112 503.176056 502.693878 501.725983 501.629517 502.022614 501.560120 500.471527 499.677277 499.024017 498.045105 497.791595 497.133728 497.113434 496.591614 495.888733 495.376556 494.835236 494.187836 494.134827 494.338867 494.658203 493.985901 493.698090 493.498077 492.729004 492.100494 492.942902 492.852753 493.734161 494.740845 495.948883 496.680756 497.352234 498.115631 498.272308 499.042236 499.299011 500.325623 500.776581 500.794891 501.208771 501.152832 500.242676 499.168488 497.843323 497.270721 497.015411 496.830750 496.591553 497.234161
517.952881 517.911255 516.895386 515.793884 515.156372 514.226501 513.977051 512.139832 511.098145 510.977600 510.767273 510.709625 510.145630 511.105835 511.436737 511.899536 512.586487 513.223145 513.282410 513.151733 513.626648 513.094238 512.376282 511.314423 510.514313 509.522583 508.450653 507.133545 506.288788 505.963318 506.671417 506.950714 507.488251 507.927521 507.466705 507.273315 507.745300 508.045502 508.141724 508.662842 509.309662 509.376923 509.201294 509.077332 508.686798 507.737061 507.140076 506.031525 504.953796 504.713715 503.720001 502.275421 501.706909 502.134369 501.198853 500.812225 501.282990 500.882477 501.435425 501.398560 500.505432 498.718994 497.772430 496.686890 495.924835 494.487122 492.802063 491.128113 490.454224 489.563477 488.469788 487.222717 486.928497 485.359650 484.553436 484.214905 483.863647 483.441467 483.369690 482.792999 483.555878 483.796967 484.283356 485.060638 486.774811 488.329620 489.559296 490.558350 492.443054 494.713257 496.174896 498.369507 499.288696 498.785156 498.146881 497.726349 497.150360 496.246124 495.674500 495.349640 495.174744 494.277557 493.605286 493.477905 492.450592 492.572906 490.765015 489.905945 489.504700 490.633759 491.686005 492.272797 493.497345 494.632172 495.715912 496.269012 497.510529 498.334167 499.177612 499.616180 500.074860 500.451752 501.002228 501.448517 500.695648 499.190643 497.436646 496.955627 496.364990 494.283386 492.104004 490.278778 489.714172 488.458008 487.233643 486.136078 485.102875 485.353149 485.334686 485.082092 484.648712 485.009918 485.320007 485.618164 485.779724 486.493835 487.355103 486.886963 486.458618 485.711060 484.384521 483.052490 482.082764 481.599609 480.673157 480.414276 480.608978 482.088257 483.629913 484.338776 485.792480 486.343262 486.948364 488.014282 488.459473 488.279663 487.501892 487.012604 486.698700 486.013153 485.167236 484.043762 484.111786 485.150482 486.094849 487.269867 488.265106 489.668793 490.106781 490.859528 491.640472 492.736542 493.601837 495.074463 496.578278 498.050079 500.329681 501.875458 502.839844 503.368164 503.174866 503.264313 502.525848 503.148346 502.833130 502.289581 502.516144 502.825867 503.962860 503.978912 505.247314 506.049591 506.834259 506.966248 507.382660 506.881409 506.627472 506.887421 507.107147 507.505463 507.745148 507.678192 506.990173 506.229553 505.292114 504.627747 504.586182 504.500824 504.579651 504.684326 504.356873 504.079803 503.117767 502.047455 502.233276 502.238800 502.140686 501.935181 500.632507 499.273315 498.602325 497.705933 497.484436 497.074615 496.499969 495.760651 494.979279 494.534363 494.752106 494.283112 493.641113 493.109589 492.463165 491.660065 491.183197 490.961853 491.582153 491.499664 492.060608 492.718811 493.803162 495.480591 496.638916 498.085754 498.686707 499.052002 499.510559 500.120392 500.122559 500.598602 501.304962 500.599396 499.636536 498.109985 496.807617 495.813934 494.962189 493.623932 493.804840 494.841400 495.995178
516.792175 516.458862 515.221130 514.502563 513.450928 512.885986 511.583191 510.238861 509.820862 509.484375 509.067749 508.912628 509.358459 509.940674 510.857086 510.830963 511.176178 511.564392 511.403595 511.050415 510.956055 510.597137 510.121735 509.420807 508.051849 506.641113 505.542419 504.654663 504.762573 504.606567 504.585358 505.687286 505.671844 505.644135 505.733246 506.116821 507.122375 507.233704 508.167969 508.538696 509.389465 509.826233 510.308197 509.842987 509.746490 508.850250 508.181702 507.838531 506.421936 504.872955 504.048401 502.983215 502.387939 501.520050 501.133362 501.114899 501.145813 501.273956 501.847504 501.360168 499.428284 498.155884 497.606323 496.635559 494.602081 492.885559 491.380615 490.026825 489.326324 488.800354 487.530029 486.415619 484.985443 484.389099 483.321503 483.157928 482.782898 482.332245 481.326660 481.391235 481.778564 481.761261 482.944305 483.985596 486.003540 487.724854 489.002930 490.127533 492.671539 495.435974 497.171692 498.729584 498.800385 498.284576 497.288330 497.436890 497.107666 495.974823 495.077698 493.844269 493.853424 492.524872 492.107971 491.630524 490.655701 489.277252 488.033325 486.559265 487.117584 488.254303 489.451080 490.735565 491.813599 493.193390 494.013947 495.683441 496.289093 496.930359 497.481079 497.589142 498.379974 499.932648 501.390411 501.861938 501.345306 499.546509 498.095306 496.025848 494.267487 491.554565 489.610779 488.432220 487.056122 485.990540 485.259369 483.939545 483.514496 483.343658 482.320068 481.936798 481.326019 482.053040 482.259460 482.842255 484.052551 484.446075 485.069397 484.658997 484.110321 482.667786 481.126709 479.700836 478.637085 477.644897 476.810883 477.027863 478.170441 479.313599 480.376495 481.427734 483.102417 484.583344 485.562469 486.688232 486.776489 486.395050 485.680542 484.604340 483.534454 482.342377 481.796936 481.098938 481.843872 482.997009 484.977936 485.947723 486.878601 487.560944 487.924438 489.343994 490.042358 491.398010 492.432404 493.270905 494.949615 497.907043 499.478699 500.988464 501.861511 502.199066 501.551178 502.007568 501.624390 502.146057 501.941956 501.182861 501.845215 501.929077 502.896606 503.234497 504.785767 505.599030 506.206085 506.180969 506.922699 506.662598 507.129700 507.223480 507.979340 508.282501 509.145752 508.413544 508.289551 506.889191 506.510712 506.166199 506.723175 506.009460 506.474182 506.314117 505.454590 504.384613 503.588287 503.091400 502.864563 502.510162 501.809418 501.389984 500.819550 499.787415 499.435913 498.525604 497.725677 496.937683 496.110870 495.360077 494.733215 494.147949 493.584167 493.069519 492.137848 490.861664 489.897461 489.720764 489.339417 489.522095 489.927765 489.940704 490.887695 491.823883 493.974518 495.619324 496.953857 497.917877 498.848175 498.870453 499.305847 500.103485 500.576782 501.153137 500.724213 499.622040 498.123230 496.152039 494.846497 493.316437 491.480713 490.945374 491.570160 493.374451 495.781281
515.807129 514.846130 513.392151 512.489929 511.767151 510.479004 509.883789 509.298981 508.557343 507.889465 508.078094 507.984924 508.768951 509.176697 509.702515 509.978668 510.215729 509.888123 509.804504 510.048767 509.392456 509.228882 508.394440 507.403015 505.664093 505.056122 504.220856 503.684967 503.636871 503.860901 504.156555 504.593323 504.369873 504.753571 505.011505 505.290009 506.229156 506.728424 507.632874 508.973022 509.863403 510.560059 510.312500 510.412689 510.103821 509.707062 508.685913 508.055145 507.013458 504.997833 504.024780 502.906677 501.614929 501.217804 501.493195 501.367676 501.095367 501.678345 501.089172 500.175568 498.472076 497.267883 496.309326 495.045532 493.478333 491.050201 490.188873 489.359070 488.665405 488.001678 486.616882 485.378357 484.362000 483.488525 482.790436 482.121460 481.165833 480.993530 480.777527 480.482788 480.963409 481.812408 482.875977 484.035553 485.787201 487.535492 489.287384 491.315552 493.697784 496.113800 497.291901 497.599121 497.947571 497.847382 497.155579 496.341553 495.522186 494.538025 493.436127 493.229126 492.354370 491.914917 490.265991 489.247101 487.974670 486.590118 484.954163 485.111481 486.302612 487.355164 488.562073 489.958588 490.843506 491.797882 493.135223 493.795013 494.874268 495.550720 496.396362 496.799561 498.469879 500.251038 501.249054 500.691284 499.727234 498.511414 497.164856 494.678497 491.747437 489.405212 488.123199 486.777313 485.389893 484.300690 483.157288 482.396301 481.076599 480.865601 480.717010 480.473236 480.278992 480.433167 480.382141 481.348236 482.480804 482.761780 482.587341 482.147827 481.484467 480.023376 478.238434 476.949829 476.229980 474.901367 474.415161 475.040466 476.532074 477.520325 479.242004 480.311859 481.690704 483.171387 484.535126 484.863342 484.860626 483.876312 483.425629 482.549683 481.210907 480.128571 479.464661 479.834473 480.876068 482.374329 483.579224 484.748077 485.562622 485.876434 486.714630 487.888275 489.047913 490.663635 492.341461 493.767242 495.673767 497.631012 499.327057 500.494446 500.584412 500.458252 500.747742 500.681793 501.406250 501.100830 500.877838 500.726105 502.177582 502.987549 503.089905 503.928375 504.646820 505.786530 506.107910 506.568268 506.964264 507.309448 507.679565 507.880280 508.612122 509.410950 509.308746 509.329651 508.253418 507.671478 507.285553 507.092987 507.314148 507.129791 506.426758 506.136292 505.690186 504.565918 503.879333 502.663727 503.045288 502.622192 502.521698 501.616333 501.346558 500.894867 499.562561 498.753571 497.748718 496.392181 496.597992 495.443024 494.655396 494.098602 493.179840 492.451019 490.866333 489.505981 488.673035 488.905640 488.190674 489.121613 489.420410 490.174988 491.403320 492.702209 494.607758 495.642151 497.582153 498.075134 498.062775 498.725616 499.450195 500.378082 500.166412 500.195221 499.518951 497.602875 496.353394 494.779907 493.181519 491.332184 490.396576 490.496246 491.528412 493.223755 495.342865
513.783020 512.749756 512.430237 511.345703 510.495087 509.639832 509.437378 508.747711 508.163330 507.403992 507.594086 507.412415 508.187927 508.567322 508.944519 509.160675 509.219604 509.173706 509.715118 508.990479 508.769318 507.743835 506.829437 505.467407 504.486938 504.616455 504.081421 502.850250 502.807343 502.687683 502.762054 503.145691 503.195831 503.384979 504.386841 505.184875 506.229584 507.197113 508.284912 509.199860 510.008881 510.352722 510.819000 510.899506 511.063263 510.480347 509.346039 507.799133 507.201172 505.858215 504.056427 502.684967 502.295685 502.357788 501.617615 501.511017 500.999664 500.918152 499.796326 498.597046 497.764771 496.146637 495.257782 493.374451 492.068390 490.865173 489.637421 488.428467 487.790771 487.056030 486.087860 485.422424 484.230408 483.174011 482.387421 481.661743 481.284760 480.606659 480.363159 480.779541 481.010590 481.822174 483.019348 484.323425 486.478180 488.044342 490.098114 492.570068 494.448059 496.218475 496.686127 497.562927 497.255066 496.751038 496.036774 494.906891 494.617493 493.841736 492.658417 491.010590 489.807129 489.625702 488.630676 487.463135 485.776825 484.642883 484.126251 484.647736 485.843750 487.111847 487.777405 489.148193 490.476807 491.366241 492.674042 494.127930 494.828613 495.367981 496.086945 496.991516 497.786957 498.828339 499.284973 499.295319 498.868774 496.673279 494.684204 492.549561 490.349579 488.492950 486.821350 485.325775 484.247742 482.699310 482.000732 481.124969 480.621002 480.175140 480.330261 479.914825 480.173737 480.148132 480.525665 480.836395 481.008301 480.712341 480.484619 479.252258 478.859741 477.711029 475.786652 474.982056 474.377533 473.666779 473.889771 474.552917 476.541321 477.415833 478.353180 480.642944 481.432587 482.661896 483.694641 484.254639 484.011810 483.340424 482.617218 481.149597 480.206329 480.205872 479.615021 480.188538 480.915955 481.614197 482.903656 482.962555 484.322723 485.515533 486.317444 487.399841 489.368591 490.933014 492.629181 494.381897 496.474548 497.597839 498.540436 499.616699 500.254028 500.105316 500.541138 500.950378 500.778564 501.133484 501.514404 502.105103 502.818024 503.270538 504.401825 504.783234 505.332977 506.274536 506.492371 507.367340 507.897858 508.344635 508.377197 508.854736 509.364929 510.142365 510.187805 509.770508 509.672333 508.890717 509.107086 508.429474 507.905914 506.946320 506.100647 505.958649 504.767426 504.837463 503.756256 503.438293 503.098053 503.156586 502.037323 502.069672 501.464294 500.815582 499.164246 498.691010 498.062714 496.756439 495.927399 494.812256 494.492889 493.427246 491.970245 490.698761 489.644989 489.014435 488.225342 488.030121 488.151093 489.104034 489.790588 490.194855 491.753418 493.565308 494.484131 496.116241 497.389618 497.987244 499.083527 499.009064 499.391388 499.166199 499.166077 497.959656 498.029480 496.433563 495.879181 493.573486 492.911285 491.358307 491.609528 491.912354 492.630737 494.104462 495.464600
513.711914 512.501770 512.121704 510.836487 510.205017 509.730927 508.863708 507.626740 507.001038 506.433441 507.024780 507.820251 507.873108 507.956024 508.240204 508.783844 509.064789 509.213013 509.001434 508.374237 507.677704 506.537018 505.834564 504.896576 504.526581 503.985291 503.655029 502.362000 501.960815 502.236664 502.138916 502.322510 501.890045 503.124298 503.919403 504.879547 506.472382 507.574554 508.826569 509.500916 509.766144 510.567200 510.867157 511.579926 511.162384 510.655426 509.565247 508.151459 507.331818 506.168640 504.165955 503.552094 502.890594 501.656189 501.679718 501.056580 500.327728 499.944885 498.672821 497.697968 495.780640 495.043823 493.618256 492.538971 490.844818 490.121643 488.930786 488.010651 487.592041 486.112030 485.077789 484.327759 482.792145 481.866516 481.710022 480.747498 481.159912 480.443817 480.386200 480.244446 481.105316 482.199646 484.235657 486.129578 488.167542 490.000702 491.423004 493.374237 494.491211 495.407013 495.699097 495.970825 495.733948 495.607239 494.718018 494.295135 493.133911 491.963165 490.808044 490.229492 489.114349 488.067749 487.103516 486.338501 485.054504 484.657959 484.085876 484.378052 485.331818 486.938324 488.028046 488.805542 489.283325 490.437500 492.047150 493.336609 493.732574 493.548798 494.216003 495.399475 495.889404 496.461426 497.178284 496.839508 495.858643 494.263458 493.096497 491.312531 489.181366 487.849243 485.700775 484.823334 483.365204 481.644440 480.757355 480.451324 479.759247 479.038452 479.483215 480.389954 480.202667 479.889404 479.493652 479.503113 479.475067 478.910461 478.819550 477.015198 475.798706 475.486633 474.503815 474.302094 473.394562 473.635925 474.668152 476.036285 476.651215 477.712860 479.311920 480.281586 481.511932 482.102875 483.015289 483.530029 483.652527 482.539062 481.385132 480.708374 480.705536 480.238373 479.811584 480.384949 480.954987 481.394867 482.523346 483.142090 483.774811 484.512573 486.369293 488.758606 490.723145 492.164642 493.415558 494.592926 496.348785 497.378967 497.922974 499.278595 499.847504 500.110809 500.388306 501.167297 501.228607 501.324341 501.928558 502.327515 502.866302 503.517975 504.558014 505.576111 506.011414 506.563660 507.343719 508.003540 508.330414 508.136078 508.462097 509.537781 510.537567 510.877869 510.368500 510.397766 510.125031 509.990234 509.790161 508.994812 508.137421 507.366669 506.504700 506.015289 505.238708 504.497925 504.079132 503.367737 503.230408 502.249481 502.628662 501.898834 501.598877 500.773926 500.234802 498.715576 497.928406 497.066895 495.574127 494.560852 493.937317 492.717987 491.311798 490.207733 489.651093 488.431519 487.691071 487.438721 487.974426 488.256378 489.453400 490.764648 492.280884 493.711609 495.218384 497.002930 498.437500 498.792419 499.359650 499.374573 498.715546 498.236267 497.759766 496.939819 496.628021 495.874359 495.880280 494.660919 493.383575 493.497406 492.230530 492.198029 492.679474 494.397095 495.874817
513.614929 512.149292 511.558258 511.334167 510.136475 509.440521 507.733734 506.766205 505.857178 506.173309 506.983154 506.345703 507.585968 508.091614 508.022827 508.712646 508.575500 508.424194 508.323883 507.936768 507.227692 506.275665 504.841553 504.104675 504.029114 503.169037 502.320312 501.785675 502.183197 501.207397 501.225616 501.250122 501.766022 503.123352 504.162506 505.285461 506.050415 507.513428 508.575989 509.586426 509.921478 510.404602 510.764801 510.884857 510.925415 510.423523 510.158936 508.896667 507.896667 507.037048 505.638153 504.098267 503.306427 502.237213 501.555969 501.109528 499.882446 498.570129 497.394623 495.443359 494.448425 493.395966 492.463806 491.869415 491.397858 489.849274 488.577301 487.380524 486.449432 485.067200 484.247589 483.438934 482.355835 481.610046 481.063934 481.163513 481.294678 480.643707 480.568817 481.309052 481.798981 483.306763 484.961212 486.929871 489.134979 490.662476 491.448883 492.103790 492.875031 493.779968 494.532928 493.654205 493.790985 493.524261 492.813751 492.340271 491.759399 490.474548 488.807312 487.936249 486.889221 486.579498 486.051849 485.654785 484.932770 484.370209 484.417206 484.615906 485.566223 486.041687 486.981476 487.498138 488.871002 489.623749 491.155914 492.163605 493.057617 492.741058 492.898224 493.303772 493.552521 494.373016 493.947479 493.853821 493.374084 492.806152 492.051758 490.279602 488.736633 486.653717 485.334076 483.823090 482.668396 481.122437 480.278076 478.860809 479.173126 478.994537 479.633392 480.114227 480.155121 479.583130 479.310150 478.345551 478.092133 477.554108 476.122589 474.777374 474.135864 473.873962 473.959839 473.273285 473.859375 473.966064 475.468567 476.436005 477.371399 477.723938 478.369568 479.454315 480.868408 482.285980 482.745758 483.085968 482.732117 481.776398 481.466278 480.449188 480.764374 480.519257 480.441101 480.154510 480.941315 482.026978 482.031769 482.609192 483.098145 485.170135 487.278442 489.827515 491.424744 491.970154 492.688782 494.061768 495.525177 496.290894 497.647949 498.740387 499.944489 500.128693 500.976501 501.664948 501.909027 502.104706 502.645203 502.394470 503.796143 504.106720 504.580750 506.126678 506.325653 507.560394 507.498199 507.896149 508.406647 509.132385 509.982788 510.525940 510.707733 511.451996 511.826538 511.868286 511.478699 510.830231 509.993530 509.225708 508.585938 507.915558 506.042023 505.557312 505.163910 504.724640 503.204681 502.907196 502.748474 502.651550 502.306305 501.738220 501.100342 500.326874 499.606323 499.203461 498.100159 496.768097 495.724182 494.514435 492.965515 491.488190 490.578491 489.623932 488.798492 488.842560 488.417206 488.405090 488.632172 488.602020 489.657684 490.547760 492.962738 494.531616 496.738312 498.806915 499.481903 499.636963 499.210571 499.396698 499.273102 498.332245 497.676483 496.954620 496.739899 496.496765 495.304230 495.099640 493.960754 493.536285 492.716431 492.908051 493.980469 495.607574 497.109650
513.853394 512.742004 511.468048 511.375122 510.032898 508.268890 507.140106 506.446930 506.007690 506.495178 506.458588 506.975159 506.977234 507.276825 508.411011 508.454041 509.109222 508.593292 508.160431 507.328827 505.930542 505.195831 503.932739 503.670654 503.386017 502.592010 502.625641 502.035583 500.670074 500.814606 501.607452 501.946075 501.854309 503.204163 503.923431 505.824036 506.438751 506.821777 508.226959 508.494720 508.788513 509.647461 510.421753 511.630859 510.992615 510.265869 509.314117 508.540344 507.404175 505.975555 505.100983 503.561646 503.405670 502.354614 501.432281 499.862122 499.121399 497.329681 496.240753 494.842621 493.946106 493.172607 491.809692 491.083221 490.281158 488.955078 487.541260 486.654388 485.104218 483.716522 483.137848 482.432159 481.726440 482.000122 481.687408 481.235992 480.586609 480.852753 480.287384 481.496368 482.540100 484.257874 486.136902 487.988586 489.438843 490.649872 491.201202 491.527649 492.423584 493.364532 493.384521 493.094818 493.183502 492.633423 491.928253 491.182037 490.671082 489.167572 487.846008 487.301941 486.521912 485.529846 485.694244 484.904053 484.750580 484.512787 484.434418 484.951080 485.123260 485.226379 485.983734 486.824829 487.490387 489.120239 489.768158 490.714294 490.516083 490.622040 490.737946 491.155884 491.328979 492.068939 492.098846 492.488251 491.976837 491.728943 490.444519 489.040649 486.938904 486.054474 484.409698 482.622498 481.688019 480.175964 479.201935 478.904694 478.460785 478.932953 478.978638 479.367310 479.137543 479.127014 478.276978 477.412018 476.283142 475.671295 474.866058 473.838043 473.213806 473.329559 473.103271 473.428833 474.706909 475.825714 476.586029 476.810669 477.581573 477.762512 478.891815 479.918518 481.235901 481.625244 482.796936 482.515503 482.282501 481.085266 480.644348 480.709900 480.214233 479.967651 480.293793 480.488190 481.282440 481.398743 481.942230 482.375427 484.458679 486.333466 487.447601 489.661346 490.718628 491.644714 491.982300 493.019531 494.340271 495.769989 497.488739 498.709625 499.515686 500.513977 501.240875 501.903351 502.474121 502.195892 502.129303 503.041687 503.551453 504.359192 504.963562 505.808441 506.845154 507.769684 508.090240 508.714172 509.331909 510.389343 511.134521 510.615326 510.964325 512.072510 512.621826 512.912903 512.036072 511.262665 510.096771 509.689819 508.081360 507.347351 506.403351 504.967804 504.074219 503.221558 503.177185 503.304352 503.161591 502.968506 502.496368 501.640625 500.944855 500.273407 499.503998 498.968170 498.160828 496.209412 495.186249 493.650238 492.851624 491.794403 490.972778 490.211304 489.411072 489.416138 489.564240 489.285828 488.921295 489.282654 490.083313 491.844940 493.240143 495.461700 497.539551 499.001953 499.425476 499.681183 499.507538 499.001190 498.329468 497.572174 497.510590 497.000610 497.085785 496.403137 496.150696 495.203339 494.601959 493.883270 493.733917 494.810730 495.617523 497.026733 498.723541
514.010742 512.837463 511.928040 511.014343 509.784210 508.425140 506.943817 507.013428 506.506958 505.952515 506.215698 505.830505 506.606964 507.376465 508.042145 508.668854 507.819427 507.946564 507.589722 506.277466 505.710266 504.642639 504.207062 503.453217 502.971924 502.299713 502.104095 501.803650 501.277405 501.452087 501.768768 502.426788 502.754364 503.494324 504.495911 505.498108 506.376892 506.927063 507.042664 507.916168 508.722076 509.890747 510.220306 510.401154 510.463226 509.834534 509.136169 508.622803 507.388458 506.075867 504.983673 503.817200 502.946167 501.377258 501.017883 499.220825 498.266571 496.916321 496.078918 494.042450 493.377045 492.291992 491.377106 490.226593 489.225952 487.668701 485.997101 484.548920 483.506714 482.480194 481.697906 482.071716 481.960693 481.115814 480.617554 480.390259 479.841980 480.220367 480.456635 481.529968 482.660553 484.467529 486.186005 488.019958 489.618347 489.707062 490.109222 491.220551 491.572601 491.958191 492.267944 492.135101 492.044800 491.945374 491.158173 490.217102 489.484009 488.298157 487.660400 486.839600 485.567749 485.262695 484.736877 484.056763 484.034454 484.267944 484.238220 484.947510 485.386505 485.308136 485.340759 485.733459 486.230652 486.477753 487.969727 488.006958 488.539246 488.718811 489.166748 489.197754 489.070374 489.501526 490.570923 491.124512 491.885162 490.995392 489.127869 487.965942 486.786743 485.287018 483.811005 482.378082 481.070099 479.797729 478.778076 478.249451 478.269104 478.653961 478.576691 478.213440 478.705750 478.614960 478.056305 477.171478 476.155487 475.303223 473.897736 473.576477 473.167084 472.648346 473.647766 473.949982 475.068420 475.584747 476.635345 477.556702 477.659271 478.155212 479.506866 480.800812 481.019623 482.724335 482.248535 482.355133 481.689514 480.881714 480.497833 480.133087 480.451691 480.215210 479.856079 480.550995 481.088287 481.335663 482.567627 483.912292 485.397644 486.548462 488.210480 489.588654 489.663818 490.017181 491.012665 492.590027 494.154907 495.631195 497.138367 498.668182 500.115753 500.923553 501.489105 502.194855 502.478546 502.679108 502.711273 503.063538 504.041595 504.879181 505.376556 506.191681 506.769745 507.347992 508.960175 509.600098 510.795929 511.594879 512.135559 512.226868 512.586304 513.044678 512.777466 512.281494 511.453033 511.001404 509.771240 508.581024 507.614624 506.186859 505.642670 504.602173 504.166473 504.046021 503.445618 503.581116 503.368317 503.135406 503.225311 501.995544 501.464386 501.260345 500.897614 499.662476 498.950623 496.829681 494.809265 493.503052 491.911194 491.348877 491.033630 490.699921 490.346375 489.937958 489.894653 489.438690 489.219635 490.066620 491.271637 492.636414 494.494995 496.218506 497.688110 499.534393 500.048065 499.486420 499.469940 498.509155 497.641693 497.739655 497.727600 496.775482 496.223724 496.279541 495.820374 495.006470 494.401276 495.214874 495.419556 495.769867 496.825745 498.112366 498.924408
514.216187 513.505920 512.521729 511.097351 509.747925 509.057770 507.948151 506.420380 506.126282 505.775513 505.483490 505.022766 505.600037 506.645203 507.561829 508.335510 508.295166 508.104431 506.654114 506.079468 504.953308 504.594604 504.267975 504.004639 503.496124 502.792358 501.828613 501.352936 500.849060 501.165100 501.453552 501.932861 502.897064 503.155792 504.652588 504.775055 506.013885 506.486877 506.323547 506.694000 507.380432 508.087891 509.001984 510.026184 510.256195 509.898071 509.629578 508.375153 507.735565 506.041656 504.982941 503.877747 502.077850 501.476379 500.255402 499.174896 497.853760 496.884796 495.687927 494.478088 492.990082 491.732239 490.642609 489.281403 487.720764 485.903503 484.079742 482.856171 481.490295 480.818909 481.148407 480.993195 480.522064 480.760498 480.012512 480.018250 480.115997 480.485779 480.832977 481.319611 483.173096 484.370819 486.291138 488.043457 488.521820 489.509247 489.489563 489.434845 489.741943 490.642395 491.118439 491.789612 491.375641 490.963135 490.912170 490.279236 489.078766 488.163116 486.834106 485.656830 484.967896 484.405151 484.174835 483.358337 483.395660 483.680420 484.491974 485.881775 485.451508 485.262085 484.724518 483.839478 484.077606 484.476562 484.935303 485.683502 486.217468 486.520996 485.874237 485.729645 486.662323 487.883636 489.255402 490.370667 490.723389 489.446594 488.525513 487.470245 485.883301 484.590088 482.966766 481.508820 479.670563 479.050079 477.764313 477.200928 476.960449 477.322601 477.195251 477.560974 477.865112 477.000641 477.036163 476.360687 476.050171 474.959625 473.966797 473.176544 473.016022 472.765717 473.523682 473.581757 474.719177 475.144592 476.047852 477.313171 478.258728 479.051788 480.220642 480.557037 481.405914 481.804443 481.656921 481.754639 481.264984 480.834595 480.478058 480.040863 479.811218 480.158417 480.152252 481.411102 481.432892 482.217896 483.100098 484.074860 485.148682 486.093719 486.743988 487.941406 488.172699 488.787170 489.711395 491.506378 493.544769 495.122375 496.813354 497.654572 499.184753 500.337585 501.606720 501.798340 502.147919 501.711426 502.274353 502.976562 504.149963 504.810120 505.954773 506.796875 507.969971 508.476501 509.200500 510.980835 512.057251 512.056152 512.477112 513.440063 513.197388 513.262024 512.710205 512.765198 512.250610 510.469421 508.791077 507.581329 506.604126 506.414429 505.394836 504.761841 504.671295 504.328979 504.765045 504.527466 504.129272 503.381470 502.478149 502.112213 501.920288 501.249451 500.701721 499.758514 498.896362 496.536377 494.893127 493.278900 491.926147 491.773651 490.973145 490.896545 491.334564 491.546112 490.565918 490.219147 490.400848 490.962921 492.407745 493.087128 494.325409 495.782043 497.031738 498.458679 499.029755 499.286957 498.894928 498.538177 498.366882 497.767639 497.204590 496.956573 496.397736 495.904510 495.255493 495.319000 495.132812 495.806061 496.187836 497.395020 498.536316 499.303741 500.618591
514.321411 513.801636 512.772461 511.974579 510.277802 509.312805 507.475677 506.794891 505.548431 505.124329 504.458282 504.092010 505.227783 505.265045 506.601593 508.106598 508.111633 508.069916 506.683411 505.931396 505.317810 505.079865 504.386566 504.157410 503.787750 502.855377 501.775665 500.882324 500.819244 501.254272 501.616913 501.417236 502.538544 503.217957 503.752930 505.028259 505.791687 505.812469 505.454407 506.006317 506.433105 507.263855 508.903320 509.651672 509.858704 509.501556 509.317139 508.067413 506.878174 505.801483 504.727356 502.625916 501.348694 500.310425 499.417053 498.668365 497.741028 496.288635 495.118652 493.989929 492.181213 491.611053 489.667938 487.580322 485.641266 483.680573 481.882019 480.041595 479.480286 479.138214 479.177490 479.116333 479.604706 479.515228 479.866821 479.828857 479.409790 479.968658 480.709229 481.301239 482.653717 483.894165 485.305573 486.342926 487.502502 487.990021 488.257050 488.410858 488.796478 489.346222 490.121704 491.035187 491.245697 490.899841 490.664062 490.254364 488.590302 486.583801 484.834442 483.836365 482.899017 482.371216 482.284637 482.302155 482.825714 483.850952 484.984985 485.485535 484.908142 483.322235 482.272034 481.881866 481.435455 481.559967 482.415039 482.711639 482.400024 482.480774 482.204926 483.204865 484.483704 486.682434 488.272430 489.231506 489.118195 487.802643 487.166687 486.458221 484.847260 483.376465 482.052032 480.764862 479.662567 478.434814 477.254639 476.748383 475.908752 476.160339 476.335663 475.480438 476.286469 475.667694 476.436615 476.531708 475.438660 474.646667 473.362518 473.331207 472.093323 472.574127 472.709106 473.449951 474.396881 475.049316 476.275757 477.845367 478.676666 479.164032 480.361816 481.301422 481.628784 481.840210 481.623993 481.307739 481.512848 480.581879 479.893799 479.877014 480.394440 480.287842 480.891357 482.342133 482.560425 483.144073 483.830597 484.391022 485.290710 485.273041 485.536255 486.498535 487.257629 488.319305 489.686432 491.184418 492.633942 494.281342 495.630707 496.961792 498.192627 499.302643 500.816437 501.238190 501.139221 501.978851 502.725372 503.504028 504.925995 505.704071 506.804504 507.281494 507.906921 509.123932 510.409058 512.270264 512.424866 512.908813 513.329041 513.558350 513.630188 513.438049 512.978088 512.460388 511.241058 509.759979 508.538757 507.679626 506.884491 505.849884 504.616028 505.051727 504.795135 505.481384 505.454285 505.102264 505.016785 503.619049 503.077637 502.477020 501.959595 501.872528 501.321716 501.346497 499.138519 496.823761 494.176147 492.569824 491.315033 491.587738 491.542816 492.408356 492.207001 491.715027 491.538025 491.273285 491.510284 491.865051 492.690460 493.514954 494.303772 495.349213 497.275787 497.989899 498.454590 499.205536 498.980408 499.131104 498.537415 497.726135 497.110168 496.485657 495.982056 496.184540 496.078369 496.536194 496.892883 497.340393 498.758240 500.269897 500.624023 500.950714 500.399780
514.585327 513.822693 512.992188 511.132874 510.132324 508.218262 507.195129 505.486420 505.089874 504.889465 504.053101 504.988403 505.333801 506.311340 507.008301 507.784637 508.905975 507.814575 506.807800 506.739990 506.162048 505.572174 505.260895 504.563385 503.876740 503.096405 502.386414 501.117340 501.337433 501.387878 501.626312 501.819336 502.247162 502.614746 503.000854 503.690247 504.302307 504.282928 504.764282 505.213379 505.683044 506.776855 507.395508 508.552399 508.925537 508.956604 507.934326 506.943268 506.162537 505.109619 502.989929 501.810944 500.703979 499.748260 498.844727 497.678589 496.279907 495.457001 494.092377 492.682587 491.579926 490.146576 488.034821 485.852936 483.556274 481.483093 480.226318 478.959747 478.023041 477.673889 478.087341 478.750031 479.773590 479.171173 479.648987 479.716400 479.615021 479.989166 480.121979 481.190643 482.316528 483.643188 484.415710 486.308777 486.702606 486.996338 486.754059 487.551422 488.054352 489.148224 489.837250 489.783356 490.408447 490.412720 490.270447 488.996857 487.387390 485.478180 483.991913 482.641846 481.868652 480.922150 480.434082 481.075317 482.531250 483.659698 484.088074 484.075409 483.292084 482.066742 480.201355 480.453979 480.208344 480.434509 480.405365 480.861359 480.984711 480.346405 480.789124 482.313782 484.232269 486.457947 487.282654 487.731934 487.218628 486.969635 486.401764 485.102081 483.888916 482.730408 481.401886 480.275208 478.905731 478.346222 477.154175 475.854523 475.408508 474.808838 475.127533 475.203125 475.410309 475.489319 476.301270 476.061829 474.728058 474.721466 473.831360 472.260681 472.312683 472.001678 472.483521 473.287537 474.535736 475.896149 476.905365 477.590363 479.247650 480.225037 480.862366 480.965149 481.621643 481.601898 481.764099 481.432251 481.153687 480.825470 479.924377 480.322784 480.336029 480.665924 481.638824 482.634491 482.557831 483.339752 483.580139 484.159882 483.884796 484.544128 485.365601 486.007965 487.126282 488.046600 489.724854 491.131622 492.556946 494.302368 495.723663 496.714081 497.965363 499.741486 500.373230 501.855225 501.884247 502.444519 503.201904 503.836365 505.097198 506.085846 507.591614 508.173615 509.818085 509.686615 511.320343 512.530823 513.273132 514.013184 513.887146 513.557251 513.571045 513.755188 512.645752 511.716431 511.020325 509.911499 508.338318 507.861816 506.228149 505.087341 504.566376 504.477203 505.493622 505.575287 505.148376 505.534668 504.837830 504.443268 503.177460 503.332581 502.328003 502.419220 502.588562 500.940369 498.921173 496.531647 494.831085 493.144867 492.721222 492.600372 492.312866 492.229797 492.152557 492.268494 491.737396 492.142365 492.126801 491.764771 492.622986 492.942169 493.897705 495.014923 496.168701 497.369843 498.778442 499.731934 499.756805 499.126404 498.918579 498.213959 497.342438 496.807770 496.593506 496.414917 497.690826 497.979218 498.674347 499.555328 500.363556 500.717224 501.067291 500.143799 500.078461
514.670105 513.638733 511.960663 510.670105 509.627930 507.871979 506.169250 505.421051 505.270630 505.374298 505.650787 505.974548 505.981445 506.563599 507.963531 508.080688 508.090973 507.841888 507.536163 506.721619 506.107330 505.871735 505.544220 504.874847 504.685638 503.865692 502.786255 501.371399 501.436493 501.722229 501.670868 502.026245 502.908386 502.532043 502.853973 503.469269 503.623291 503.935669 504.255798 504.731476 505.737396 506.713135 507.466980 508.062134 507.828094 507.710327 507.110352 506.162811 505.310120 503.431244 502.542236 500.913696 499.560944 498.462463 497.183075 495.759155 494.985840 493.510742 492.266327 491.027344 489.450348 487.938751 486.147278 484.544373 482.219116 480.448730 479.087524 478.012695 477.003326 476.933746 477.517120 478.267303 478.766876 479.426849 480.237244 480.100647 480.202118 480.954041 480.950775 481.323303 482.892273 484.130280 484.778015 485.630859 486.611420 486.338715 486.386047 486.848602 487.670197 488.334900 489.291901 489.405426 490.123505 489.583252 488.677124 487.511505 486.335297 484.937195 483.192688 481.422577 480.230591 480.382172 479.751221 480.500824 481.018524 481.405334 482.519470 481.780945 480.897003 479.508148 479.387787 478.883179 479.680969 478.929657 479.277893 479.368042 479.379028 479.695099 480.510101 481.969910 483.403870 483.966949 484.419830 485.259460 485.196716 485.360504 484.616425 484.186523 482.344025 481.133575 480.254974 479.512329 478.707672 478.076019 476.880676 476.095367 475.564972 475.192352 474.676941 474.517334 475.060852 475.498993 475.417297 475.222839 474.618164 474.164398 473.509583 472.529388 472.565002 471.963806 472.665222 473.631653 475.143829 477.032501 477.916504 479.005249 480.515228 481.926483 482.279205 482.250122 481.936371 482.069794 481.586456 481.059601 480.774170 480.195831 480.022766 480.257812 480.299652 481.054810 481.559418 482.228668 482.721863 482.336395 483.488556 483.841003 484.166168 484.420959 485.118774 485.941956 486.906525 487.826324 489.264709 491.136932 492.823914 494.434814 495.931763 496.702179 498.632080 499.693390 501.042297 501.758453 502.344482 503.581940 503.429565 504.015137 505.943176 506.619598 508.147034 508.705658 509.626984 510.314606 511.632141 512.454346 514.105957 514.172119 513.946167 514.295532 513.864136 513.391113 512.088867 511.310883 510.322357 508.484863 507.281006 506.917053 505.786469 505.868256 505.566650 505.122894 505.698822 505.314270 505.640625 504.720093 504.253265 504.277039 503.275238 502.797638 502.773773 502.403534 501.666565 500.095825 497.969116 496.445557 495.110321 493.714294 492.690674 492.782135 492.537140 492.460236 492.484222 492.177002 492.838867 492.189941 492.483582 493.076141 493.622528 493.789459 494.271545 495.723022 497.087158 498.197205 498.833954 499.319946 500.050171 499.278137 498.784302 498.041718 497.874512 497.133698 496.677094 497.429047 498.214569 498.606812 499.577881 499.841187 500.539246 500.988129 500.456177 499.751099 500.115845
513.643250 512.596741 511.705231 510.179535 508.908600 507.481201 506.093719 506.069061 506.523010 506.502411 506.789368 506.582397 507.165009 507.837494 509.039520 509.282104 508.975952 509.162933 508.851868 507.820862 507.325714 506.846588 506.746307 506.433258 505.361145 504.642670 503.866272 503.400391 502.782471 502.825958 502.771271 502.614136 502.973541 502.710083 503.234253 503.753052 504.127899 503.851807 504.088013 504.758881 505.312256 506.427368 506.469604 507.620636 507.410645 507.067017 506.533020 505.935303 504.478668 502.366058 501.120483 498.961182 498.145630 496.534546 495.801575 494.469849 492.907806 491.857208 490.536682 489.598541 487.782623 485.755188 484.511627 482.574432 481.189941 479.638275 478.527710 476.990845 477.350830 476.815826 476.935394 478.269440 478.380981 479.463470 480.568848 481.306183 480.125122 479.821350 480.500702 480.918457 481.950073 482.665833 483.974304 485.685486 485.212769 485.385590 485.089050 485.825714 486.618622 486.605743 487.725464 488.473816 488.753632 488.258240 487.628052 486.757629 485.214813 483.077332 481.632172 480.630402 479.760193 478.566528 477.984650 478.605591 478.969757 479.246643 479.927063 479.596497 479.245911 478.393463 477.589905 477.691956 477.719238 477.365204 477.825165 477.557831 477.909851 478.380981 479.022705 480.304382 481.279327 481.380310 482.454681 483.443024 483.810577 483.464935 482.683533 482.263153 481.492432 480.729736 480.142151 479.800171 479.149811 478.211578 476.988342 476.404572 476.407745 475.251221 475.006195 474.619659 474.906891 474.661316 474.808075 473.667603 473.945770 473.821869 473.157471 472.997620 472.645966 472.714233 473.527985 474.816681 475.892731 477.577301 479.028961 480.241852 481.936340 482.904907 482.967682 482.671387 482.111938 481.513794 481.229767 480.945953 480.197357 479.541748 479.372009 479.598358 480.161926 480.605347 480.986298 481.099182 482.528931 482.707855 483.517120 483.415466 483.967896 484.543549 485.339233 486.442566 487.278198 488.050537 489.959198 491.664276 492.934998 494.740509 495.885773 497.642578 499.376465 501.161743 502.107208 502.509857 503.745178 503.755127 504.358582 505.074280 505.716614 506.778656 507.521423 508.284393 508.710846 509.616333 511.588318 512.333069 513.623718 513.775635 513.940979 514.416016 513.759277 513.731445 512.065308 510.865417 508.824188 508.050537 507.097229 506.671173 506.789398 505.833923 505.687775 505.595001 505.066437 505.516571 505.649445 505.724243 505.112732 504.598114 503.412048 503.001587 502.259979 501.838806 501.160675 499.891846 498.755798 497.592773 495.492340 493.613922 492.558167 491.856110 492.267731 493.046204 493.484650 493.577789 493.336456 493.081024 493.406494 493.642700 494.242188 494.048645 495.274139 496.491272 497.127777 498.627686 498.678223 499.107910 499.182434 499.243225 498.533142 497.833160 496.909729 496.675262 496.871918 497.530151 497.944550 498.580353 499.059448 500.008820 499.843872 499.326385 499.388947 499.329865 498.754211
513.125916 512.395020 511.129150 510.555237 509.082581 507.979919 507.999023 507.778046 508.236572 508.451263 507.772308 507.908600 508.797119 509.271881 510.470825 510.635956 510.854401 510.212219 509.752045 509.331299 508.588074 508.537201 508.393097 508.478943 507.278900 506.223907 505.745758 505.211884 504.510590 504.045074 503.706360 503.601593 503.562653 503.994690 504.415283 503.754852 503.860352 503.330872 503.909241 504.924896 506.076569 506.180450 506.448181 506.420380 506.556183 506.304352 505.186066 503.628784 502.004242 500.656891 499.235870 497.491760 496.631409 495.408020 494.359070 492.888062 491.305267 490.179779 488.516357 487.206818 485.474518 484.204956 483.012939 480.781647 479.880768 478.943787 477.904175 476.963959 476.400024 476.467773 477.000305 478.010620 478.763733 479.716919 480.702301 480.025024 479.530731 479.313812 479.791412 480.568054 481.065948 482.493500 483.613403 484.487457 484.699585 483.864685 483.598480 484.514526 485.130646 486.094940 486.679108 487.035034 487.601379 487.439514 486.304474 485.416016 483.477295 481.914612 480.640259 479.548828 478.369995 477.022156 476.474396 475.979279 476.819794 477.322693 476.990417 476.823486 476.593506 475.938416 475.663574 475.205170 475.780212 475.485413 475.539398 476.156281 475.668610 476.292053 477.226959 478.396729 479.019653 479.866486 480.467102 481.371887 481.772339 481.576660 480.597260 480.290405 480.432800 480.521240 479.529175 479.245270 478.529388 477.649933 477.341003 476.981659 476.723511 476.003723 475.004883 474.457184 474.252777 474.144043 473.545807 473.494965 473.155212 474.325592 473.327362 473.087860 473.326721 473.704590 474.720245 476.046539 477.385559 478.804779 480.212982 481.969360 482.954376 483.069641 483.319763 482.346893 481.769318 481.456543 480.125549 479.973724 478.726624 478.731628 478.579346 478.482300 479.183197 479.744171 480.355530 481.096313 482.400848 483.172546 483.648193 483.869995 484.066742 484.558594 485.521088 485.962097 487.331451 488.795807 490.661621 492.471222 493.819611 495.344299 496.793579 498.559723 500.659760 502.003235 502.476959 503.551636 504.204620 504.630829 504.518799 504.882141 505.517914 505.939301 506.646301 507.890656 509.437469 509.895142 510.894318 512.716064 513.678284 514.183655 515.086914 514.501221 513.544983 512.850403 511.588959 510.021210 508.884216 508.156799 507.633118 507.148621 507.057922 506.775452 506.336273 505.989014 506.181427 507.124481 506.874939 507.483887 507.038055 505.152100 504.020020 502.687866 502.862274 502.393524 501.371674 499.805176 498.977844 497.579285 495.268982 493.287140 492.259460 492.787415 493.232574 494.465607 494.915802 495.098633 494.008240 493.844055 493.976227 494.349487 494.889618 495.242554 495.957947 496.685944 496.585663 497.199860 498.186554 498.912872 498.661774 498.501831 498.155640 497.101349 497.087067 497.078094 497.375458 497.570557 497.920654 498.851837 499.280731 498.699402 498.425201 497.838867 497.824402 497.622559 497.165314
512.655762 511.546844 511.224274 510.098633 509.391815 509.746094 509.583649 509.630768 509.504700 509.394501 509.916138 510.063751 511.053741 511.364807 511.900604 511.920471 512.237183 511.927307 510.973175 510.778687 511.052704 510.017334 509.891144 509.057495 508.299255 507.107300 506.587708 505.587036 504.826538 503.998474 504.222534 504.324371 503.623138 504.490723 503.739716 503.805450 503.927399 503.880432 504.322723 505.236298 504.916290 505.371735 505.420288 505.783813 506.165527 504.566345 503.341492 501.840759 499.898468 498.685272 497.499390 496.223267 495.469940 494.673553 492.986206 491.669739 489.942261 488.333252 486.440674 485.380371 484.274872 482.460876 480.806183 480.205902 479.219421 478.862091 477.732971 477.250732 476.776794 477.548828 477.592285 478.394135 479.252197 479.413544 479.298523 478.847351 478.253082 478.160156 478.632080 479.095825 480.181183 482.175781 482.934998 483.079254 483.243195 483.148682 483.180756 483.478302 484.147461 485.258728 485.931091 486.791565 487.733978 487.383392 485.829071 484.591858 482.302246 480.758667 479.378204 477.615326 476.301086 474.795410 474.384186 474.738220 474.816284 475.414154 475.750946 475.071381 474.991760 474.283508 474.252625 474.384552 473.497284 473.867004 473.516357 473.925079 473.871704 473.764282 475.226349 476.249115 476.810516 477.983368 478.890045 479.688751 479.801666 480.260712 479.475830 478.988312 479.337433 479.470551 478.329956 478.160126 477.865173 477.275360 477.128082 477.272858 477.073517 475.550049 475.092133 474.946503 474.560516 473.998199 473.791718 473.528412 474.150909 474.410675 474.070221 474.040710 474.104950 474.287903 475.723602 477.221619 478.767120 479.941071 481.220215 482.611481 483.663940 483.489716 483.084412 482.048859 481.492737 480.463745 479.839630 478.526093 478.257416 477.832520 477.709045 478.319977 479.259766 480.110687 480.314178 481.271698 482.533875 482.531799 483.206512 484.101624 484.295776 484.449158 485.460236 486.494934 487.638763 489.317505 491.086304 493.399994 495.088989 496.721100 498.706604 500.731964 501.624298 503.255127 503.705505 504.220581 503.968384 504.165527 504.768921 504.755066 504.943207 505.903687 507.142059 508.087585 508.838623 510.262451 511.724304 512.707458 513.695740 514.317383 514.388000 514.016113 513.400879 512.477844 510.849365 509.745056 509.040039 508.486664 507.888428 507.907501 507.415985 507.420288 507.368469 507.510712 508.189728 508.418365 508.688477 507.952820 506.969727 505.244904 504.068024 504.101959 503.767517 502.895386 501.889954 500.368622 499.176514 497.730164 495.843414 494.116394 492.757629 493.411072 494.043854 494.472046 494.778870 494.961700 494.844910 494.871063 494.776062 495.075287 495.451599 495.493744 495.713959 496.036133 496.622803 496.931702 498.085785 498.295593 497.973541 498.108978 497.930908 497.822998 497.478577 497.082031 497.353882 497.767548 497.261841 497.212952 497.977203 497.453705 497.193787 496.155151 495.800232 495.792267 496.150482
512.910767 512.146790 511.475647 510.777710 510.932037 510.583344 510.810059 510.727417 511.026947 511.043884 511.813324 512.373291 512.281738 512.733582 512.758423 512.142883 512.697754 512.827759 512.497314 512.130676 512.313416 511.729065 510.961151 509.973236 508.603271 507.206787 506.000885 505.090576 504.510803 504.494995 503.435730 503.428528 503.501068 503.358063 503.755829 503.869019 503.499847 503.680756 504.425934 504.737946 504.518250 504.946289 505.138245 504.867554 504.465912 503.058868 501.798126 499.885834 498.436615 497.390594 496.406036 495.688080 494.678436 493.643738 491.539612 489.758179 488.412872 486.652924 484.939301 484.006409 482.950134 481.951416 480.845062 479.731873 479.591705 478.367126 478.205658 477.934906 478.183105 477.979675 478.303070 478.368652 478.351227 478.526825 477.888794 476.955231 476.892181 476.552612 477.471466 478.492310 479.165894 480.535980 481.050873 481.659271 481.758392 481.537628 482.009888 482.855194 483.409119 484.463196 486.334412 486.684448 487.160767 486.048981 484.572052 482.858093 481.007172 479.048370 476.962738 474.699524 473.477417 472.836548 472.817444 473.703156 473.787781 473.638672 474.101807 474.580780 473.463440 473.432465 472.986847 472.736023 472.316895 472.512207 471.766205 471.774597 472.132141 472.441376 473.096008 474.002350 475.009796 475.539978 476.349213 477.584137 477.875854 477.589111 477.615601 478.559906 478.504517 477.541199 476.312592 476.319550 476.545746 477.012482 477.252075 477.229950 476.550598 475.907532 475.826874 474.921143 475.050018 475.411774 475.519287 475.116486 475.363464 475.154755 474.347015 474.347046 474.333466 474.933197 476.843292 478.109131 479.555267 480.943115 482.231720 482.870483 483.655334 483.905457 482.365784 481.076782 480.241058 478.884308 477.944153 477.463501 476.219299 476.726410 477.047485 477.466003 478.796265 479.966370 480.791351 481.408844 482.820923 483.062469 484.028564 484.075897 484.782196 484.993530 485.587280 486.549011 487.362915 489.066101 491.125549 493.710144 495.642883 497.954437 500.099976 502.026886 503.479980 504.483307 504.775116 504.301361 505.189880 505.669708 505.005096 505.225403 505.933136 506.482697 507.265717 507.967010 509.532440 510.304962 511.552460 512.912292 513.986511 515.022827 514.539795 513.836914 513.129028 511.711853 510.616425 509.779358 509.283569 508.775604 509.000549 508.900574 508.623199 508.637756 508.394135 508.927277 509.438690 509.076233 509.260681 507.920593 506.732758 505.693176 505.593140 504.867889 504.027405 503.625519 502.465759 501.746918 499.838104 497.990295 496.298065 494.760040 493.892670 493.999176 493.938538 494.899719 495.236115 494.975708 495.130005 495.381531 495.210663 495.066437 495.073090 495.279510 495.362244 495.578949 495.993561 497.159058 498.227295 498.193909 497.994507 497.751892 497.930237 497.531281 497.826660 496.880280 496.400116 496.244110 496.752930 496.466461 496.414215 495.811462 495.482574 494.687561 493.761597 493.998169 494.368439
513.578491 512.625183 512.288269 511.329407 511.812866 511.922791 511.983185 512.089233 513.050598 512.968994 514.046448 513.444275 513.836853 514.002502 514.117615 514.191711 514.304810 513.844727 514.297729 514.339478 513.891907 512.395508 510.917511 509.853516 509.066254 506.887695 505.247009 503.764099 503.131683 502.806519 502.949310 503.495361 502.875946 502.238281 502.202271 502.155151 502.085999 503.111847 503.385345 503.370880 503.319214 503.060974 503.927826 504.133240 503.000427 501.708282 500.280029 498.608551 497.080383 496.224518 494.957733 494.448822 493.455200 491.462433 490.085907 488.456970 486.832245 485.560852 484.688751 483.569092 482.831970 481.401733 480.954407 480.689789 479.369324 478.853851 478.545624 478.163330 478.026581 478.577362 478.832214 478.578491 478.127869 477.302216 476.539062 475.396942 475.658844 475.714111 476.946869 477.807800 478.085052 478.651917 479.055267 479.113831 479.715088 480.193878 480.538452 480.507507 481.596863 482.986359 484.761139 486.185822 486.410156 485.003876 483.078949 480.953339 478.791901 476.576721 473.736115 471.475830 470.454651 470.943298 471.832184 472.229218 472.163818 472.169830 472.841553 473.095367 472.342896 471.312927 471.514160 470.934906 470.647461 470.480835 469.976837 469.384888 470.399719 470.497406 471.090363 471.606903 472.773529 473.363617 474.990204 475.775879 475.816589 476.373871 476.991791 476.732788 476.338470 475.704895 474.789673 474.172791 475.436829 475.887817 476.976593 476.765320 476.698608 476.486237 475.870758 476.633728 476.599518 476.955719 476.574127 476.110565 476.140320 475.318909 474.560272 473.619598 474.124298 475.850311 476.842896 478.439667 479.935150 480.649689 481.745087 482.711884 483.441345 483.009277 481.557739 480.884613 479.176086 477.836975 476.594299 475.444244 475.191040 476.189850 477.036499 477.921204 478.380157 480.063721 481.254456 482.078796 483.625183 484.187988 484.209229 484.782959 484.667725 484.801239 484.772858 485.574585 487.550293 489.536377 490.944763 493.269592 496.331818 498.930969 501.208679 503.332001 504.665863 505.147125 505.135468 504.968719 505.621399 505.319305 505.380371 505.668610 505.918976 506.299866 507.064270 508.117310 509.088959 510.622192 511.810028 513.850342 515.032959 514.826416 514.081177 513.684937 512.591309 511.300201 510.251556 509.908691 509.627350 508.957245 508.791504 509.113495 509.501770 509.366882 509.330566 509.608002 509.637543 509.445862 508.695312 507.986298 507.659912 507.236694 507.494690 506.972839 505.774292 504.326691 503.871124 502.748840 500.910248 499.010620 496.929840 494.472351 493.819000 494.146484 495.003082 495.220398 495.419922 495.696381 495.855835 495.727539 496.050140 495.750671 495.563110 495.131805 495.195129 495.825287 496.231689 496.603516 497.352600 497.428345 497.894104 497.683685 497.473450 496.935425 496.393250 496.285889 496.038361 496.463623 496.152985 495.214966 494.619171 494.089508 493.533905 491.754639 492.142609 491.599854 492.502350
512.977295 512.886841 512.066833 511.343597 512.442383 512.861633 513.526672 514.008118 514.453918 514.044495 514.615112 514.723145 514.318970 514.756836 514.736572 514.680359 515.152039 514.732300 515.443848 515.525085 514.540833 513.337830 511.499054 509.748657 507.782623 506.284882 503.960602 502.134338 501.645935 502.077545 501.912964 502.362335 501.571686 501.532562 501.005341 500.408295 501.754425 501.542877 502.444885 501.944489 501.921204 502.490692 502.007812 502.446503 501.243652 499.628021 498.288025 496.827423 494.932465 494.824249 494.276520 493.906158 491.944214 490.023102 489.191925 487.658081 486.473419 484.958496 484.007782 483.771088 482.405945 482.243408 481.189819 480.726105 479.491699 478.433624 478.481903 478.274567 478.147339 478.159637 478.320374 478.446991 477.909271 476.511658 475.294708 473.965454 474.091980 474.818909 475.277313 475.556488 475.833313 475.836700 475.882996 476.839661 477.357788 477.532776 477.788483 478.060150 480.192078 482.458527 484.938934 485.972137 485.893219 483.716309 481.456543 479.203827 476.693573 473.638092 471.201019 469.117493 469.489655 469.748810 470.380402 470.848846 470.817383 470.770355 471.291046 470.296204 470.238953 470.538940 470.077515 470.321808 469.409119 468.292206 467.991913 467.197418 467.666046 468.885712 468.608673 469.134033 470.256836 471.168243 472.979919 474.317078 474.878662 475.641785 475.696320 475.239746 474.840576 474.076508 473.248962 473.665070 474.177948 475.757935 476.790466 476.959106 477.269440 477.166840 477.616089 477.443298 478.311493 478.183014 478.011932 478.064056 476.591309 475.347351 474.252716 473.131470 473.885712 475.104126 475.992004 477.960907 480.030060 481.121613 482.141541 483.290771 483.219360 481.889221 480.951630 479.347015 477.858612 476.122131 474.969879 474.268555 475.111053 475.934204 476.754791 478.056519 479.629120 480.304321 480.949158 482.604614 483.956390 484.570190 485.127167 484.645020 484.758362 484.650543 484.786133 485.372559 486.897430 489.500702 491.902618 494.196564 497.061127 500.040161 502.783142 504.240173 504.867676 504.979706 505.298615 505.504974 505.916992 505.586029 505.335999 505.581177 506.074310 506.475464 507.069519 508.302582 509.410126 510.782501 513.145386 514.917603 515.002625 514.427673 513.950745 512.931641 512.072205 511.106445 510.373474 509.881470 509.626617 509.707886 509.941193 509.374939 509.509033 509.668945 509.640900 509.430939 509.687531 509.298523 508.796600 508.846039 508.541473 509.044922 508.759583 508.136139 507.578064 506.702179 505.311218 504.160126 502.366577 500.158569 497.767578 495.305267 494.843567 495.135925 495.363770 495.442169 495.788544 495.996765 496.309967 495.948181 495.678467 494.717987 494.576569 494.731781 494.570190 494.964722 495.484039 496.177765 496.802673 497.766571 497.330353 497.418427 496.943695 496.240997 495.701050 495.351349 495.551880 495.762451 495.861969 494.658997 493.172119 491.778046 490.635834 490.103821 489.839233 490.591980 491.082031
513.476013 512.650024 512.232910 513.003601 513.682800 514.098145 513.967285 514.381287 514.632263 514.692383 514.469055 514.551331 515.209351 515.398499 515.331177 515.141052 514.786499 515.502014 515.822449 514.840881 514.447144 512.360657 510.316864 508.999176 506.767761 504.448822 502.802338 501.578491 500.853638 500.794952 500.204071 500.645172 500.187958 499.963379 500.337524 500.340790 500.903351 500.912659 500.846710 500.652832 500.597778 501.215363 500.903412 501.254395 500.523499 498.336639 496.653931 494.686371 494.169403 493.663818 493.149597 491.288269 490.026276 488.530762 487.871918 487.156067 485.738403 484.788544 484.370605 483.616272 482.354889 481.645782 481.035339 479.896667 479.205017 478.079071 478.559296 477.986115 477.800079 478.213562 477.804596 477.703094 475.925018 474.959320 473.704681 473.878418 474.293243 474.213196 474.725494 474.620239 474.869476 474.856842 475.017334 475.395081 475.931427 475.743805 476.144287 477.169006 479.349243 481.807129 483.585297 483.888153 483.448090 481.616089 479.074036 476.922577 473.879639 471.039276 469.122498 468.541473 468.829376 469.036133 469.384399 469.774689 469.578888 469.882904 469.854004 469.261078 469.630798 469.768921 470.011414 468.823517 468.388428 467.859711 467.025909 466.268951 466.713776 466.522400 466.914612 467.747040 468.148438 470.398285 471.235138 472.297913 473.858215 474.217865 474.328583 473.685181 472.839325 471.912689 472.542358 473.314362 474.687683 475.734711 476.709717 477.497437 477.916351 477.894196 478.463135 478.503082 478.144135 478.302277 478.271393 477.328705 476.122467 474.762634 473.459961 473.642792 473.852020 474.556213 476.244995 477.905151 480.014771 481.752594 482.394714 482.122955 481.541901 480.596771 479.350220 477.772125 476.577972 474.619354 474.193390 474.252350 474.834991 475.347931 476.514160 478.155060 479.302704 480.428467 480.963409 482.325165 483.606140 484.282318 484.413025 484.488586 484.866608 484.745239 485.447968 486.642853 487.969269 490.273926 492.895813 495.734558 498.954529 500.916809 503.210632 504.321686 505.124939 505.131805 505.498352 505.664185 505.440186 505.536041 505.778717 505.729584 506.159943 507.196869 507.654114 508.458557 510.108002 512.041565 513.320312 514.556946 513.957153 513.708496 513.384033 512.579407 511.819977 510.833130 509.989624 509.988800 509.250397 509.966980 510.346954 510.133667 510.251617 510.499664 509.898590 510.099640 509.339661 509.631165 508.813354 509.112457 509.982727 510.122650 509.312073 508.308960 507.439178 506.440582 505.272522 503.216003 500.640503 499.070557 497.055756 495.908936 495.495667 495.633850 495.092560 495.373596 495.466095 496.184479 495.547638 495.633575 495.354767 494.327759 494.219543 494.080109 493.886108 494.288696 495.098358 495.836700 496.367584 496.757416 496.621674 496.364227 495.989288 496.063416 495.727295 495.223785 496.131775 495.389465 494.724579 493.866302 492.337036 490.095734 489.463470 489.020477 489.185242 489.835815 490.661865
