118.387802 118.070457 117.204071 116.446426 116.307159 115.448532 114.499062 113.058769 111.621300 109.944717 109.033981 107.921783 107.046906 106.283066 104.796593 103.689072 102.762085 101.297150 100.544487 99.738403 98.947350 98.211075 97.151237 96.179665 95.332863 94.587059 93.857155 93.319695 92.647263 91.953636 91.780952 92.111214 92.355820 92.331184 92.645119 93.196701 93.115479 93.546814 93.801842 94.361061 94.857246 94.883163 94.954620 94.404335 93.640343 92.867538 92.123192 91.517914 91.890778 92.019577 92.436928 92.636101 92.602982 92.849411 92.291267 92.612854 92.372353 92.663582 93.100792 93.410294 94.195923 94.538254 94.681252 94.928986 94.532089 94.269051 93.736374 94.146675 93.774788 93.458572 93.574387 92.648148 91.692856 91.066452 90.750999 90.140182 90.083214 90.609467 91.099197 91.774185 92.265709 92.907166 93.241760 93.957169 94.578720 94.875687 95.250092 95.452621 95.208832 95.516342 95.101311 94.928627 94.942993 95.236389 95.486954 95.543930 95.921936 96.046196 96.781631 97.478989 99.066971 100.248047 101.520851 103.092773 104.950012 106.262596 107.475967 108.046249 108.040916 108.158249 108.465714 109.264610 110.000374 111.130684 111.896675 112.622086 113.818298 114.829720 116.230469 117.675079 119.418129 120.649353 121.823616 122.201675 122.253510 122.150551 122.047951 122.625389 122.948074 123.536148 123.840446 124.246758 124.992699 125.242531 125.782890 127.172615 127.745270 128.633347 129.188309 129.456757 129.393250 128.808487 128.955154 129.579025 130.157150 130.757797 131.180008 131.443192 131.712906 132.193207 132.796753 133.376923 134.132095 135.059296 135.792130 136.472214 136.520477 136.960617 136.908905 136.837402 136.694275 136.305527 136.281738 136.416321 136.366592 136.625092 136.638168 136.636063 136.788681 136.616974 136.040283 135.616745 135.279373 134.987228 134.830719 135.361938 135.979416 136.485153 136.474640 136.212463 136.420654 136.531158 135.949921 135.923019 134.989838 134.878418 134.673035 134.770157 135.116257 135.228394 135.602844 135.149506 135.567841 135.249924 135.279099 135.460312 135.704605 136.472534 137.169662 137.859406 139.412903 140.236694 141.734573 142.763580 143.740845 144.469772 145.273499 146.167450 146.865875 147.490555 147.985977 148.576096 149.279724 149.686417 150.464874 151.225327 151.422745 152.224640 152.314148 152.592880 152.771866 152.679581 153.380249 154.386093 155.198929 156.634140 157.152298 157.900726 158.818207 159.429977 160.078629 161.053329 162.068604 163.612183 164.526245 164.685394 163.893250 162.806259 162.515900 162.488953 162.232208 162.983841 163.741013 164.757004 165.155045 165.757477 166.222321 167.287399 167.888474 169.065262 170.519455 171.298187 171.676865 171.760910 172.033295 172.714172 173.255325 173.664780 173.487427 174.245575 175.166519 175.772156 175.873779 176.142166 176.057434 176.173920 175.596329 175.908081 175.132233 175.306747 175.188187 175.214264 175.528381 175.650726
118.559662 118.582603 117.549232 117.446091 116.591789 115.307320 114.082077 112.785568 111.332581 110.055138 108.896301 107.855659 106.627762 105.625710 104.039101 102.988197 102.304779 101.119041 100.321671 99.517075 98.529053 97.657272 96.277596 95.360863 94.487457 94.175484 93.546127 93.100204 92.656563 92.136841 92.094376 91.617310 92.141541 92.415550 92.723770 93.051567 93.344223 93.580170 94.257866 94.161118 94.543198 94.671326 94.181107 93.925117 92.818909 92.589676 92.411964 92.214279 92.393097 92.418564 92.782661 92.733047 92.790405 92.465729 92.957336 92.629364 92.856491 93.172050 93.629982 94.067162 94.435394 95.181664 95.146812 95.157951 94.841515 94.447922 94.379837 94.107521 93.971436 93.798332 93.260033 92.731926 91.989304 91.507484 90.998299 90.820747 90.819153 91.003403 91.322449 92.074898 92.475853 92.679878 93.299095 94.198067 94.756882 95.708992 95.662704 96.078468 95.807182 95.926361 95.328148 95.259712 95.340240 95.332870 95.486473 95.573120 95.863426 96.463127 97.056717 98.133522 99.436241 101.152542 102.365967 103.922424 105.369003 106.814674 107.694618 108.271751 108.119827 108.354774 108.909599 109.368622 110.099541 110.817398 112.002571 113.199432 114.136284 115.329056 116.509438 117.977577 119.523254 120.584091 121.369614 121.747620 122.035400 122.038216 122.380005 122.397110 123.117393 123.532310 123.529503 124.173851 124.848335 125.324425 126.373802 126.724503 127.494499 127.962158 128.325821 128.834244 128.511948 128.595657 128.384460 128.793900 129.307037 130.064728 130.614685 130.647934 131.404282 132.121979 132.407806 133.232651 134.495972 134.689514 135.571594 136.188629 136.891693 137.295334 137.222763 137.100143 136.768845 136.152206 136.335510 136.154419 136.674774 136.522217 137.026627 136.863617 136.556717 136.547516 135.932297 136.031540 135.436478 135.030151 135.457947 135.673004 135.997559 136.445648 136.697327 136.813507 136.543564 136.599899 135.933212 135.399963 135.125580 134.383560 134.496796 134.559036 134.973495 134.597229 135.215317 135.009445 135.005005 135.495789 135.464340 135.606979 136.318298 137.033417 138.388794 138.985672 140.413971 141.742920 142.988556 143.905685 144.207916 145.176010 146.084076 146.779327 147.284195 147.963638 148.360077 148.839966 149.928360 150.683975 150.955856 151.040085 151.570099 151.967026 152.172684 152.439346 152.191620 152.963486 153.350845 154.685867 155.166000 156.413361 156.945831 157.568817 158.868164 159.935913 160.811188 161.747208 162.915497 164.368805 164.607864 163.687866 163.016342 162.224686 162.117035 162.156647 162.301163 162.989975 163.578308 164.486237 164.787766 165.487000 165.759933 166.533600 167.382919 168.755646 169.524246 170.420959 170.803436 171.225037 171.616501 172.175720 172.078491 172.564072 173.130661 173.731918 174.652237 175.284546 175.644485 175.862167 175.433914 175.931061 175.509888 175.492126 175.343826 174.768768 174.507614 175.075424 175.494797 175.377151
118.669006 118.259148 117.595901 117.314598 115.952469 114.457191 113.199196 111.880219 110.855896 109.326950 108.857857 107.117393 106.038521 104.756470 103.600151 102.979111 101.669930 101.189873 99.823441 98.692612 97.483971 96.450256 95.432671 94.453033 94.040878 93.274178 93.359169 92.637138 92.387321 92.338654 91.526100 92.240135 91.849052 92.507866 92.939651 93.285645 93.657860 94.006050 93.943291 94.099915 94.272789 94.026077 93.508232 93.378563 92.965919 92.260330 92.783348 92.259613 92.315224 93.091507 92.667305 93.037460 92.844612 93.155731 92.981178 93.312149 93.482651 93.647995 93.610649 94.208031 94.812897 94.778107 94.803566 95.058167 95.163246 95.040833 94.709251 94.486130 94.257774 94.033752 93.776474 93.116463 92.868156 92.238014 91.833511 91.837776 91.534119 91.317017 91.814995 92.120155 92.240944 93.006454 94.169876 94.855164 95.380684 95.907097 96.265289 96.293388 96.122330 95.604523 95.820023 95.597198 95.551903 95.350655 95.391869 95.844101 96.194679 97.149811 98.197044 98.869179 100.147919 102.077309 103.264336 104.761147 106.035667 107.220795 107.807053 108.254944 108.413254 109.140396 109.623604 110.126869 110.624176 111.631096 112.795311 113.702461 114.857300 116.176102 117.663002 118.510712 119.307724 120.250969 121.153831 121.789940 121.582413 121.516632 122.035576 122.124001 122.919312 123.346260 123.550652 123.952141 124.580887 125.574951 126.007103 126.773903 126.931961 127.821732 127.829666 127.986160 128.027496 127.868553 128.168152 128.473297 129.183563 129.697052 130.261215 130.505569 130.996994 131.712189 132.732147 133.430908 134.200577 134.969894 135.962036 136.618805 137.093231 136.948608 137.039368 136.585617 136.550842 136.348068 136.610535 136.384338 136.712128 136.764664 137.285919 137.065857 136.685486 136.302017 136.048767 135.815338 135.696228 135.737076 135.601883 136.010223 136.563354 136.727814 136.274796 136.926697 136.978363 136.902191 136.217453 135.412231 135.197769 134.570251 134.480621 134.498016 134.440094 134.355270 134.656570 134.902863 134.954056 135.085098 135.715912 136.465897 136.970505 138.202805 138.935944 140.263687 141.626022 142.653046 143.686050 144.198914 144.960464 146.241440 146.754211 147.411102 147.738907 148.248215 149.058350 149.638672 150.191925 150.977829 151.210953 151.591583 152.103317 152.159119 152.184692 152.540161 152.691101 153.331558 154.298080 154.795135 155.640839 156.614883 157.163437 158.224960 158.682495 159.948471 160.943726 161.482025 162.772964 162.956665 163.199310 162.572037 162.220047 161.676132 161.634033 161.808899 162.183792 162.829590 163.264618 163.769547 164.350113 165.194275 165.919113 166.600571 167.124878 168.165634 169.019348 169.295181 169.966507 170.324814 171.111542 171.100967 171.728729 172.479156 172.611115 173.713745 174.350189 174.811569 174.928024 174.914322 175.006317 175.278000 174.970703 175.035675 175.043869 174.981979 174.993408 175.185196 175.084534 175.567978
118.567749 117.935333 117.283623 116.305557 115.604790 113.840981 113.011215 111.922478 110.295929 109.272774 107.823471 106.803291 105.743568 104.497475 103.451797 102.576820 101.569748 100.679306 99.284721 98.066750 96.911766 96.114212 94.791061 94.363670 93.753273 93.054352 92.695641 91.840446 91.318817 91.631905 91.924026 91.628098 92.325447 92.970268 93.270676 93.844513 93.768661 94.050613 93.693085 93.720581 93.511948 93.098404 93.364754 92.887497 92.207909 92.416550 92.347183 92.189964 92.233688 92.808830 92.958885 92.833298 92.757469 93.149948 92.481087 93.002571 93.378418 93.726303 94.023209 94.393532 94.650970 95.410599 95.457008 95.634773 95.406624 95.507927 94.865044 94.678055 94.711830 94.631363 94.773849 94.080063 93.562096 93.281120 92.557007 92.189163 92.602333 92.477310 92.416504 92.517349 92.943642 94.060387 94.204086 95.459229 95.903473 96.571526 96.436523 96.460747 96.268181 95.893471 95.676453 95.339890 95.278496 95.633682 95.805206 96.379845 97.509819 97.857803 98.927505 99.662483 101.035538 102.166901 103.418915 104.629425 106.169708 107.160263 107.725296 108.271332 108.347115 108.742500 109.115402 110.039764 110.592209 111.428314 113.005684 114.214264 115.521484 116.335991 117.307884 118.094589 119.293411 120.082115 120.910851 120.802727 121.022003 121.277512 121.892708 122.423622 122.243622 123.198158 123.451508 123.753212 124.377495 124.741646 125.410507 125.976982 126.103745 126.324219 127.041275 127.275223 127.175583 127.293381 127.352089 127.962234 128.283081 128.805466 129.840408 130.238617 130.515274 131.182770 132.456985 133.053131 134.074814 134.785477 136.021362 136.882156 137.011414 137.130005 137.290176 137.277191 137.030380 136.750412 136.246170 136.621399 136.511719 136.738068 136.858292 136.485168 136.274094 136.109756 135.632599 135.649826 135.604782 135.727951 135.725525 136.565781 136.305420 136.817917 136.653183 136.807480 136.886002 136.924210 135.897903 135.475510 135.426636 134.712341 134.395035 134.050995 134.457840 134.163345 134.711502 135.126724 135.390869 135.885788 136.356934 137.214096 138.200958 138.736374 140.061676 140.729858 142.287781 143.440826 143.930786 145.015137 145.837952 146.499557 147.339355 147.331863 148.078094 148.571426 149.432053 150.466614 151.192047 151.434326 151.451447 151.330338 151.590027 151.993256 152.349533 152.722351 153.148819 153.599716 153.993057 154.766129 155.475998 156.605026 157.284332 158.073914 159.107361 160.011627 160.305283 160.960709 161.212830 161.460587 161.547638 161.675125 161.090240 160.881454 161.282181 161.402222 161.568665 162.709396 163.202194 163.975342 164.150864 164.750763 165.476212 165.971741 166.706268 167.683105 168.490555 169.226959 169.571793 170.204437 170.492233 170.753616 171.559875 172.130402 172.985825 173.753220 174.314117 174.438248 174.731750 174.762894 174.939453 175.036911 175.004471 175.201004 174.916061 174.653351 174.869949 175.207001 175.121994 175.876541
118.613380 117.598145 116.790970 116.177521 114.908539 114.135689 112.905220 111.746452 110.370369 108.837250 107.650780 106.409271 105.216049 103.982826 103.520851 102.373703 101.503525 100.258186 98.774429 97.995659 96.730453 95.457283 94.922745 94.146919 93.479759 92.859207 92.018600 91.196671 91.254555 91.570007 92.190369 92.122742 92.789497 93.040344 93.223518 93.171127 93.420860 93.294533 93.443359 92.975578 92.729149 92.808464 92.376373 92.060951 91.566017 91.171242 91.361969 91.936562 91.922523 92.089241 92.763512 92.480812 92.470558 92.505539 92.291527 92.683426 93.279358 93.498650 94.238991 95.024712 95.561729 95.961769 96.512764 96.620193 95.823997 95.858284 95.071907 95.082367 95.378082 95.400574 95.140991 95.030823 94.266228 93.973419 93.747101 93.609047 93.249199 93.170036 93.152649 93.525177 93.598694 94.352470 95.092499 96.030640 96.869942 97.061302 97.172119 96.736732 96.596596 95.685524 95.588165 95.656288 95.862762 95.962700 96.316597 97.315559 97.898781 98.932899 99.476631 100.285301 101.412560 102.449661 103.575783 104.445320 105.762016 107.069191 107.208099 107.587456 108.038376 108.046120 109.079620 109.801086 110.848305 111.835136 113.630379 114.604240 115.052605 115.883942 116.765076 117.621193 118.462517 119.638329 120.414665 120.457420 120.636108 121.080490 121.513824 121.742310 122.373848 122.746758 122.722221 122.949303 123.416672 123.956711 124.334068 124.953537 125.302101 125.462776 126.284309 126.000168 126.106056 126.210182 126.732330 127.027061 128.002151 128.584198 128.861786 129.282333 129.668747 130.783646 132.123596 132.831070 133.759644 134.731140 135.800079 136.890640 136.959015 137.432846 137.497192 137.035141 137.048950 136.717865 136.731750 136.435516 136.250214 136.423920 136.329971 136.448364 135.890060 135.910614 135.968155 135.683441 135.462204 136.146774 136.256577 136.730179 136.543579 136.772369 136.807846 137.307785 137.091553 136.862289 136.414566 136.255661 135.326874 134.644989 134.045288 134.208282 134.424164 134.515472 134.796249 135.370544 136.421936 136.940399 136.991592 137.824997 138.474838 139.659698 140.238556 141.653534 142.716400 143.696365 144.735809 145.265564 146.205124 147.009140 147.290283 147.810196 148.497742 149.403976 150.181824 150.704346 150.729889 151.238007 151.135788 151.141541 151.394043 152.098373 152.605423 152.619797 153.097092 153.603607 154.558731 155.424866 155.925369 156.975616 157.528381 158.555679 158.824493 158.885162 159.030777 159.598389 159.806671 160.124313 160.012115 160.092056 159.728851 159.735550 159.957077 160.526199 161.219711 162.467865 163.075012 163.680389 163.707886 164.114944 164.608093 165.080414 166.068161 166.854095 168.224503 169.250748 169.402863 169.632355 169.870911 170.600006 171.367142 172.408951 173.086319 173.884644 174.332764 174.389130 174.496475 174.161850 174.556076 174.633804 174.851685 174.498428 174.347275 174.174835 174.186905 174.669495 175.321045 175.460556
118.122444 117.224472 116.302948 115.734924 114.729164 114.024452 112.902458 111.240219 109.775970 108.279716 106.528038 105.219627 104.577316 103.785599 102.635208 101.974594 100.898262 99.684120 98.457832 97.530731 96.566963 95.158455 94.466583 94.163948 93.103111 91.973274 91.562393 91.023262 91.303642 91.394585 91.983826 92.210861 92.498131 93.093086 93.218460 92.766243 92.726425 92.721138 92.863419 92.863304 92.710442 92.138351 91.637062 91.263947 90.983902 91.133125 91.083862 91.111618 91.670341 91.806480 92.495750 92.110535 91.913605 91.972191 92.375885 92.676826 93.576508 93.961319 95.081116 95.625702 96.557068 96.855347 97.116692 96.811989 96.545151 96.631790 96.341019 96.131233 95.932312 95.629837 95.493050 95.172340 95.143051 94.872719 94.110580 94.169334 94.091446 93.790222 93.644814 94.259605 94.411980 95.009705 95.527687 96.790009 97.286552 97.678917 97.237915 97.018143 96.448387 96.153755 96.113060 96.024330 96.223625 96.777939 97.199471 97.745598 98.354286 99.490471 100.086662 100.848137 101.746880 102.529457 103.535355 104.492210 105.940727 106.677925 106.476913 107.063614 107.344940 108.222801 109.201523 109.710991 111.170372 112.452095 112.979042 114.105988 115.371918 115.759850 116.555656 117.451035 118.464218 118.990616 119.581551 119.673233 120.486771 120.453377 121.011246 121.769974 121.954933 122.343887 122.378960 122.660271 122.986458 122.715828 123.576134 123.707718 124.410881 124.912750 125.584526 125.342911 125.136772 125.499634 126.207306 126.850754 127.472046 127.877136 128.185196 128.210114 128.726044 130.132782 131.656677 132.603134 133.733002 134.534500 136.143005 137.114288 137.182190 137.852783 137.551285 137.554886 137.207275 136.741882 136.525848 136.049530 136.460861 136.496857 136.350555 136.543289 136.442337 136.484100 136.060989 135.728333 135.449600 136.386688 136.603638 136.504150 137.095612 136.748077 136.960754 137.562943 137.398163 136.976593 136.733780 136.282593 135.603363 134.841766 134.856674 135.085022 134.776733 135.214722 135.583771 136.147842 136.844803 137.142639 137.502121 138.321915 138.762512 139.634308 141.119583 142.202881 142.649216 143.727463 144.642822 145.325348 146.049835 146.757004 147.344193 148.232147 149.123871 149.690231 150.531189 150.602448 150.705917 151.142151 151.375366 151.417923 151.794556 152.448578 152.571701 152.708206 153.646011 154.517639 155.072693 155.456497 156.175629 157.037476 157.238525 157.353790 157.987259 158.194092 158.242981 158.350647 158.887802 158.920334 159.364929 158.951187 159.077789 159.370850 159.649033 160.570480 161.110794 161.664841 162.240204 162.670532 162.852417 163.430481 164.180649 164.852585 165.423584 166.886841 167.838501 168.338928 169.049484 169.184799 170.223923 170.951462 171.822968 172.392441 173.105698 174.000839 174.076523 174.054047 174.398209 174.397354 174.405609 174.299652 174.051193 174.013687 173.369553 174.061783 174.228180 174.424164 175.125916 175.975967
117.755318 116.928650 116.027939 114.949486 114.100113 113.222130 112.220299 110.761688 109.383759 108.010590 106.135582 105.070641 104.189804 102.933922 102.425468 101.563637 100.443558 99.345894 97.756355 96.653069 95.763161 95.092514 94.602631 93.899246 92.729393 91.726860 91.102371 90.937897 91.262985 91.845978 92.243317 92.850662 92.528580 92.894730 92.700493 92.648041 92.456223 92.239189 91.880333 92.214348 91.872581 91.280594 91.154930 90.488739 90.330215 90.768929 90.702812 90.971191 90.804840 91.063698 91.182915 91.413162 91.577095 91.937210 92.504456 93.287048 93.552956 94.633018 95.899666 96.599548 96.939590 97.238251 97.521690 97.833748 97.364799 96.941124 96.839569 96.794701 96.574654 96.403358 96.189049 95.550316 95.251488 94.780952 94.650986 94.612663 94.531837 94.079330 94.568253 94.849991 95.354568 95.759033 96.634453 97.464066 97.551613 98.182182 97.876663 97.888313 97.102066 96.707573 96.851433 96.335526 96.828560 97.320015 98.052353 98.536400 99.433922 100.148682 100.930382 101.428505 102.282562 102.623596 103.509941 104.513466 105.247498 105.809303 106.201408 106.317390 106.733856 107.720375 108.773178 110.073624 111.234123 112.350471 113.437386 114.335960 115.328171 116.299767 116.504318 117.301888 117.945778 118.240662 118.944725 119.201889 119.637306 120.240791 120.680702 121.580200 121.460136 121.563683 121.776909 121.898537 121.668488 122.190201 122.993011 123.429817 123.442207 123.853294 124.018227 124.499428 124.723618 125.137802 125.655769 126.122147 126.753197 126.779755 127.151039 127.496292 128.310013 129.662613 130.929550 131.806519 133.498337 134.769577 136.270950 137.452148 138.098801 138.337967 138.184631 137.620499 137.266846 136.660873 136.396927 136.154236 136.502930 137.082367 136.719650 136.539963 136.391129 136.165283 135.325470 135.378448 135.696091 136.405334 136.651520 137.036514 137.291306 137.057739 137.140823 137.651947 137.346527 137.239487 136.504257 136.085663 135.651230 135.415787 135.396057 135.486481 135.461212 136.256470 136.624496 136.787674 137.144333 137.417038 138.268158 138.858078 139.152542 140.162827 141.132935 142.184235 143.055862 143.777206 144.837418 145.016068 146.359238 146.583725 147.976562 148.816879 149.352188 149.597839 150.287231 150.666809 150.926041 151.260010 151.656189 152.110123 152.384125 152.379578 152.754593 153.376877 153.760773 154.271912 155.016602 155.585007 155.844971 156.593582 157.116165 157.478806 157.302399 157.773148 157.286926 157.614670 157.610703 157.393387 157.505661 157.312943 158.011505 158.260132 159.204269 160.027618 160.570831 161.106735 161.397797 161.802170 161.946167 163.019257 163.625702 164.305176 165.112534 166.243225 167.290253 168.225555 168.484955 169.101562 169.883530 170.837021 171.745941 172.945618 173.499527 173.948364 173.992645 174.016129 174.143066 173.788849 173.930206 173.489517 173.349640 173.121353 173.394470 173.768661 174.303009 174.520096 175.199615 175.962448
117.867218 116.669365 115.822777 114.594734 113.844017 112.356880 111.522507 110.024948 108.737778 107.021675 105.859459 104.686737 103.408669 102.565781 101.798447 101.240768 99.920265 99.250114 97.992966 96.950806 96.315704 95.856308 95.001671 94.191742 92.944199 91.850510 90.740463 90.370392 90.892799 91.511856 92.134888 92.343513 92.166664 92.130646 92.130035 91.785782 91.681160 91.359161 91.397392 91.207321 91.003746 90.685738 90.352501 90.232422 90.214973 89.993874 90.177864 90.022766 90.526451 90.250458 90.198593 90.901283 91.284668 91.706589 92.287575 92.912560 94.236763 95.584892 97.138245 97.356697 98.093697 98.323143 98.353699 98.079910 97.951096 97.914330 97.747971 97.233253 97.226173 96.628494 96.446198 95.997940 96.002022 95.542824 95.132347 95.350777 94.892532 95.310249 95.276749 96.005249 96.563446 97.305351 97.827209 98.488930 98.634575 98.661400 98.914635 98.658104 98.076790 97.891701 96.968475 97.271400 97.670128 98.132263 98.242317 99.001892 99.825165 100.232376 100.968964 101.718948 102.305313 103.119438 103.614601 103.703163 104.580521 104.855209 104.729149 105.385025 106.343277 107.577927 108.601280 110.157661 110.830971 112.590378 113.539322 114.419952 114.774315 115.598412 116.681252 116.686424 117.271416 117.542366 117.684647 117.913986 118.643303 119.698524 120.228027 120.839340 120.871132 121.270065 121.079262 121.026810 121.471359 121.634743 121.587646 121.781731 122.356384 122.975739 123.239532 123.401321 124.263908 124.671150 124.719269 125.320320 125.501167 125.488976 125.450516 126.489723 127.644409 128.634109 130.200134 131.534302 133.137085 134.792984 136.854553 137.850830 138.187714 138.030014 137.783447 137.154114 136.745789 136.370956 136.175400 136.165634 136.769821 136.430084 136.403168 136.321899 135.966751 135.628952 134.925537 135.099503 135.396942 136.069534 136.742599 136.812912 136.725693 137.147507 137.823700 137.967697 137.600800 137.150970 137.023758 136.565842 136.347824 135.741425 135.727402 136.382263 136.746216 137.025116 137.429276 137.755173 138.017471 138.443497 138.484100 138.862976 139.775162 140.800232 141.379486 142.607849 143.139023 144.200409 144.573898 145.071182 146.095856 146.675980 147.750778 148.279358 148.981720 150.064941 150.794815 150.851898 150.984818 151.749985 152.237808 152.244080 152.610535 152.297516 152.461975 152.848022 153.636337 154.229843 155.092987 155.240723 155.532990 156.158173 156.385376 156.574097 157.048035 157.085754 156.641724 156.528748 156.663452 155.990723 155.722412 156.002167 156.899704 157.593582 158.462158 158.966675 159.064423 159.558411 159.992401 160.960052 161.542175 162.505127 162.873657 163.976074 164.875137 166.204529 166.566208 167.736649 168.097122 169.385757 169.833862 170.787872 172.023788 172.486496 173.404266 173.664368 173.630905 174.211731 174.281616 173.957825 173.849564 173.135925 172.343735 173.024292 172.846039 173.321915 174.144791 174.723541 175.076584 175.915192
117.773964 116.362312 114.920204 113.979630 112.883217 112.014809 110.965561 109.634850 108.258713 106.935150 105.959259 104.222191 103.922897 102.937210 102.101982 100.858055 100.254150 99.306389 98.481499 97.507172 96.731964 96.036331 95.565056 94.334328 92.673676 91.200417 90.778465 90.728180 90.705276 91.323242 91.406944 91.594948 91.670479 91.362450 91.220428 91.011009 91.056908 90.890266 91.109962 90.440521 90.290054 90.055992 89.546867 89.436043 89.645081 89.776466 89.492592 89.236557 89.360825 89.476440 89.794930 90.104530 90.928642 91.992737 92.518127 93.332626 94.882782 96.112175 97.668678 98.464767 98.444328 98.969597 98.952682 98.634338 98.906265 98.749504 98.704399 98.179024 97.898834 97.442261 97.201927 96.894440 96.360558 96.294151 95.668777 95.922478 96.049744 96.039062 96.696205 96.892937 97.453560 98.538460 99.151718 99.692513 99.549995 100.008850 99.979332 99.874763 98.759918 97.965431 97.756393 97.886848 97.950752 98.594833 99.204208 99.703316 100.295540 100.427414 100.956711 101.629303 102.192223 102.683357 103.079712 102.950424 103.256027 102.985268 103.500725 104.277153 105.840065 107.379906 108.458534 109.715828 110.739182 111.717827 112.953796 114.262711 115.059380 115.308998 115.852661 116.619148 116.738937 116.952362 117.205070 117.793365 118.510933 119.643929 120.135574 120.555367 120.717789 120.257721 120.371017 120.158318 120.329575 120.828445 121.176727 121.050415 121.671722 121.839317 122.349945 122.549683 123.289146 123.754547 124.511139 124.239525 124.197174 124.109268 124.206184 125.386620 126.811600 127.831787 128.987610 130.721390 132.752670 135.440231 137.194107 138.211884 137.912399 137.610596 137.579575 137.222427 136.623505 136.476669 136.479385 136.331665 136.529327 136.332642 136.488205 136.551895 135.293991 134.773132 134.531204 134.695648 134.991913 136.156693 136.144913 136.659988 137.304428 137.451019 137.793808 137.992661 138.104477 137.632996 137.203690 137.301529 136.791336 136.533920 136.556961 137.027451 137.683395 137.780151 138.465042 138.562805 138.687637 138.890564 139.469864 140.182587 140.445435 141.290054 142.188034 143.134827 143.552002 143.874222 144.665604 145.479156 146.068710 146.775330 147.465332 148.348938 149.500229 150.099472 151.007767 151.201828 151.661545 152.008514 152.158081 152.133163 151.821350 151.759354 152.060608 152.269012 153.200531 153.901154 154.450043 155.049347 155.093414 155.644409 155.647842 155.981888 155.793930 155.894440 155.668259 155.669205 155.199860 154.200653 153.509827 154.709229 155.374802 156.731155 156.920319 157.183914 158.180496 158.743454 159.297195 160.127792 160.807083 161.466400 162.050156 163.092819 164.240463 165.256973 166.223587 166.974564 168.342316 168.545700 169.205872 170.525848 171.744553 172.374847 173.402359 173.824509 173.720108 173.939301 174.328522 173.840820 173.194733 172.835678 172.082535 172.375122 172.899338 173.130890 174.048218 174.752640 175.692703 175.967560
117.074104 115.601288 114.689751 113.334145 111.971085 111.281601 110.299324 108.890907 107.291664 106.260429 105.312622 104.559509 103.417747 102.478027 101.567429 100.636360 99.871651 98.922226 98.146393 97.322983 96.747551 96.253296 95.246750 94.133926 92.201485 91.416565 91.247162 91.338066 90.683243 91.118843 91.595917 91.092346 91.009621 91.074387 90.823051 90.702873 91.082809 90.755699 90.433823 90.273300 89.363991 89.625778 89.311630 89.173912 89.650772 89.335670 89.113335 88.920120 89.171707 88.895340 89.525528 90.549599 90.634430 91.751427 92.866440 94.598274 95.622353 97.101974 98.070663 98.308548 99.140907 99.488029 98.951073 99.238159 99.274330 99.572578 98.895767 98.363411 98.155014 98.013763 97.420624 96.808861 96.809021 96.052315 96.253563 96.304489 96.912003 96.864944 97.310066 97.776665 98.142616 99.225578 99.615471 100.083534 100.477814 100.493629 100.429802 100.086098 99.094322 98.281723 98.137123 98.069107 98.891609 99.625175 100.129097 100.053329 100.366554 100.845367 101.657936 101.844734 101.748932 101.965240 102.092712 102.315201 102.268044 102.989204 103.628555 104.647865 106.214607 107.311554 108.806862 109.826385 110.470932 112.095001 113.336861 113.922958 114.776138 115.471527 115.664169 115.561035 116.123878 116.399101 117.078056 117.302620 118.433464 119.514557 119.895050 120.195686 120.259254 120.193916 119.776344 119.551582 119.668755 119.776321 120.357452 120.994316 121.203789 120.925232 121.311317 122.105766 122.821548 123.324570 123.772400 123.607597 123.385544 124.004799 124.595810 125.551765 126.524895 127.486816 129.654007 131.007248 133.528839 135.230347 136.736038 137.598053 137.444702 137.510803 137.111496 136.634277 136.702484 136.809540 136.568893 136.585068 136.434067 136.284134 136.122162 135.431213 135.003799 134.384644 134.453751 134.785782 135.398254 135.732346 136.308411 136.702484 137.338379 137.448486 138.041260 137.776352 138.088715 138.281708 138.052155 137.507660 137.414032 137.160034 137.272736 137.640671 138.356781 138.403198 138.947800 139.047424 139.520035 139.253586 140.191528 140.863342 141.403488 142.372131 143.003464 143.364685 144.083420 144.397614 145.421494 145.802216 146.616562 147.181244 148.115662 149.098053 149.493591 150.360306 150.942184 151.760773 151.958725 151.910645 151.511856 151.827255 151.405121 151.707916 152.162628 152.796234 153.411346 153.594757 154.455444 155.176575 155.295258 155.279526 155.024216 155.140900 155.065643 155.337646 154.674683 154.435944 153.333725 152.958725 153.544342 154.337265 155.051819 155.817566 156.294815 156.822144 157.513840 158.077850 159.287704 159.654373 160.419067 161.631378 162.314957 163.106247 164.173492 165.236282 166.239929 167.373184 167.970016 168.756241 169.840042 171.002151 171.743484 172.362686 173.075439 173.702652 174.225418 174.140289 173.815262 173.250946 172.907013 172.321732 172.055069 172.481796 172.635056 173.294312 173.835999 174.719055 175.223495 175.886765
116.227249 114.876945 113.286400 111.616806 110.949509 109.902344 109.032890 107.861572 106.337143 105.228622 104.367577 103.444107 102.807381 102.084572 101.318069 100.296257 99.934875 98.926155 98.186440 97.676964 96.647774 95.700897 94.347313 93.428894 92.741310 91.886292 91.473885 90.860626 90.955658 91.272667 91.070976 91.008392 90.671638 90.834152 90.430260 90.652603 90.609062 90.307289 90.186470 89.790443 89.459877 89.881012 89.445442 89.610703 89.226578 89.109604 89.252884 89.465355 89.256187 89.641808 89.843826 90.246246 91.340469 92.602165 93.671783 95.274780 96.180954 97.037552 97.653732 98.462303 98.722397 99.190193 99.471039 99.591812 99.658714 99.265053 98.740211 98.717972 98.614891 98.111961 97.432037 97.200226 97.043243 96.930901 97.163475 97.171432 97.757133 97.646477 97.740112 98.206413 99.000824 99.769806 100.110146 99.969208 100.293526 100.374161 100.003403 99.540359 99.249123 98.987053 98.906853 98.890617 99.437881 100.254990 100.461067 101.094635 100.807869 101.301506 101.445000 101.471230 101.639168 102.083069 102.226212 102.483818 102.909492 103.805237 104.700668 105.802864 106.962807 108.339600 109.755844 110.451111 111.138290 112.513557 113.441772 113.908180 114.376732 115.131027 115.491043 115.581062 116.178024 116.427193 116.982559 117.870483 118.483047 119.254730 119.665543 119.761543 119.965881 119.793602 119.445518 119.760551 119.961288 120.089668 120.768150 120.696526 120.776131 121.076965 121.485497 121.811073 122.485481 123.052238 123.314804 123.208755 123.559227 124.051346 124.754395 125.986336 127.050995 128.198059 129.888519 131.312363 132.901871 135.065079 135.812576 136.896530 136.891510 136.688004 136.721375 136.687943 136.555359 136.171326 136.108627 136.279617 136.019913 135.630859 135.665497 135.114838 135.348129 135.362671 134.853195 134.939697 135.474686 135.936356 136.231049 136.840820 137.187393 138.046417 138.272568 137.929886 137.992111 137.992935 138.141586 138.164108 137.813019 137.726059 137.836060 138.403305 138.712891 139.479202 139.490646 139.720566 140.059082 140.244720 140.601822 141.409088 142.163376 142.426071 142.843613 143.516983 144.624023 145.148788 145.898422 146.528732 147.326035 147.641769 148.551651 149.031418 149.869736 150.859695 151.337585 151.550293 151.520279 151.348465 151.393646 151.640808 151.268082 151.858643 152.080734 153.097961 153.221207 153.954880 154.337357 154.737640 155.134323 154.987122 155.089325 154.710876 154.679153 154.125732 153.876450 153.618500 153.360840 153.767273 153.964417 154.044968 154.861389 155.530426 156.404938 157.177338 157.710907 158.378250 159.155792 159.827393 160.955200 161.528625 162.740036 163.387802 164.397324 165.574509 166.916306 167.938812 168.643478 169.388947 170.162552 171.046921 171.717743 172.246109 173.033295 173.605331 173.585571 173.607483 173.702057 172.831650 172.760681 172.691391 172.357101 172.453354 172.868729 173.556259 174.555618 175.318634 175.964706 176.894104
115.420738 113.428261 111.975685 110.526535 109.910973 108.413231 107.393021 106.464691 105.700333 104.394455 103.547722 102.390198 101.944580 100.710449 100.392067 100.014641 99.165024 98.371422 97.579430 96.591942 96.213997 94.865822 94.110916 93.212593 92.942719 92.323730 91.387009 90.724007 90.999405 91.080818 90.927162 91.224266 91.111633 90.798706 90.507042 90.313728 90.174782 90.362686 89.971863 89.947357 89.898338 89.659813 89.880508 90.420509 89.579605 89.896286 89.553726 89.812210 90.145515 89.974472 90.436058 90.949799 91.969612 92.837097 94.196770 95.036865 95.567802 96.613464 97.364410 98.451988 98.341118 99.245750 99.325943 99.792610 99.787193 99.350861 98.907082 98.819176 98.442810 98.243088 97.767731 97.682007 97.674973 97.675743 97.889427 97.812050 98.093231 98.332664 98.244072 98.884583 99.493080 99.698135 99.804527 100.034256 100.339798 100.310371 100.550865 99.717651 99.392525 99.340652 99.852257 99.996933 100.469757 100.388420 101.385025 101.121841 100.987373 101.057449 101.690987 102.013123 101.924789 102.343254 102.925743 103.329376 104.103302 104.625404 105.971329 106.919563 107.684029 109.342163 110.269318 111.150024 112.434227 113.066788 113.547340 114.108635 114.670532 115.048058 115.644569 116.151169 115.921036 116.212097 117.094193 117.826408 118.954247 119.412605 119.888863 119.864082 119.741966 119.868652 119.767769 120.226135 120.132462 120.603722 120.380859 120.798050 121.018562 121.609741 121.793823 122.051804 122.330757 122.914635 123.146828 123.320007 124.169189 124.881332 125.481728 126.673019 127.619301 128.622437 129.794098 130.920593 132.708359 134.230240 135.190186 135.863708 135.895493 136.172729 136.174622 136.280289 136.257324 135.850632 135.548721 135.957275 135.893738 136.141159 135.686386 135.866089 135.342117 135.647171 135.657623 135.322861 136.110611 135.988922 136.176056 137.028793 137.544769 137.701416 138.072342 138.130981 138.110718 138.450150 138.678726 138.585815 138.009003 138.351944 138.405380 139.022202 139.214523 139.691452 139.713165 140.491730 140.701965 140.412689 141.060074 141.651520 142.229401 142.648209 143.512711 144.106277 144.995316 145.580002 145.886856 147.207962 147.305557 147.813339 148.212555 148.803879 149.766907 150.397232 151.228470 150.946854 151.118195 150.979935 151.383926 151.412811 151.836166 152.296295 152.481689 152.674957 153.484253 153.824982 154.414734 154.841812 154.914200 154.968994 154.907150 154.567673 154.135727 154.088409 153.659927 153.919525 153.903656 154.056717 154.102661 155.054840 155.688187 156.111801 156.886490 157.563293 157.836227 159.079285 159.908478 160.266037 161.393478 161.830048 163.207962 163.824356 164.890503 166.487991 167.911514 168.921677 169.424393 169.915863 170.350327 170.896179 171.688797 172.127045 172.798492 173.341629 173.430679 173.577484 173.414932 173.339493 172.742157 172.706207 172.619156 173.304367 173.342514 174.140900 174.936478 175.387161 176.503616 177.627151
113.971733 112.483940 111.072601 109.306549 108.716553 107.568825 106.531052 105.580940 104.860695 103.488731 102.314491 101.369843 100.795586 100.044067 99.619942 98.686119 98.348793 98.055313 97.107254 95.932388 95.769943 95.349335 94.834404 93.767410 93.269020 92.351913 91.589722 91.599205 91.131386 91.005920 90.800941 91.028564 91.172096 90.800117 90.567207 90.171379 90.163132 90.345345 90.025742 89.686020 89.638855 90.479218 90.555916 90.192574 90.486214 90.550110 90.523323 90.558022 90.362854 90.520561 91.052284 91.529076 91.756981 92.403534 93.904274 94.318245 95.643372 96.349174 97.400757 98.224014 98.596619 99.512962 99.859482 99.687645 99.454086 99.746735 99.546326 99.263321 99.080124 98.992401 98.319969 98.239441 98.481880 97.992760 98.468460 98.246918 98.361336 98.704384 99.235481 99.545258 100.349457 99.831993 99.844185 100.273750 100.682793 100.363686 100.551163 100.376427 99.883110 100.117126 100.259010 100.369141 100.863548 101.139687 101.178314 101.330177 101.992386 102.195808 102.170311 102.533760 102.971405 103.170258 103.321007 103.978104 105.127480 105.653732 106.923782 107.325279 108.526855 109.665688 110.851723 111.873871 112.750290 113.423805 114.091248 114.292511 114.509758 115.077644 115.739838 115.970772 116.231567 116.805313 117.698715 118.277969 118.596687 119.417305 120.126633 120.104584 120.021347 119.954613 119.830765 120.161896 120.273300 120.692558 120.921371 121.434364 121.352547 121.424042 121.220871 121.611595 122.254303 122.762009 123.455414 124.020515 124.327156 125.349854 126.447594 127.248802 127.447235 128.258820 129.081726 130.718597 131.964539 133.269760 134.250824 134.834167 135.332550 135.604813 136.101028 135.750977 135.752991 135.241974 135.566986 135.705780 135.516968 135.445877 135.807465 135.845352 136.274277 136.195480 136.300247 136.122711 136.336578 136.574127 136.694061 137.404312 137.494980 137.555862 137.849121 138.143814 138.041840 138.583618 139.015808 138.999695 138.699005 139.063599 139.447174 140.104294 140.326248 140.361862 140.413864 140.453186 140.707901 140.667145 141.243790 142.162659 142.900085 143.651382 144.510315 144.728134 145.523987 146.342865 146.787674 147.082977 147.341278 147.920761 148.203964 148.626892 149.567795 150.434128 150.714371 150.860672 150.970016 150.910706 151.181992 151.557037 151.783524 152.459930 152.547363 153.183746 153.768005 154.259613 154.756424 154.857819 154.655121 154.534729 154.294601 154.660187 154.298630 154.308502 154.713455 154.647217 154.823944 154.612244 154.991028 155.098297 155.718033 156.709717 157.077728 157.807983 158.855759 159.675003 160.196854 160.599304 161.642120 162.645859 163.411789 164.530945 165.618271 167.280746 167.981430 168.926987 169.322403 170.148209 170.654221 171.172943 171.570007 171.727173 172.440613 173.010880 173.310654 173.551422 173.866531 173.437500 173.415222 173.237335 173.301529 173.784973 174.041092 174.413940 175.354691 176.358582 176.715103 178.274857
113.267212 111.555969 110.136017 108.302925 107.408676 106.582596 105.698814 104.565659 103.712776 102.855080 101.537109 100.861465 100.000748 99.213821 98.593735 98.005836 97.427902 97.170998 96.463074 96.112419 95.925339 95.218628 94.268997 93.988342 93.437798 92.261375 92.166801 91.810707 90.938225 91.059685 91.128654 91.053848 90.951515 90.569489 90.450562 90.260155 90.364807 90.515068 90.368088 90.300919 90.293533 90.553421 90.656258 90.525238 90.556450 90.439041 90.496887 90.530029 90.499931 90.746643 91.246147 91.629593 91.462776 92.462326 93.381355 94.228516 95.161812 96.006691 97.042137 98.204086 99.010185 99.298080 99.731339 99.993073 99.748810 100.168419 99.856026 99.422333 99.695267 99.460526 98.993927 98.896980 98.346245 99.093094 98.895630 99.013878 99.197685 99.626297 99.897263 100.235970 100.268188 100.388283 100.615860 100.638031 101.329865 101.377373 100.858795 100.711670 100.160851 100.448540 100.281845 100.725876 101.072327 101.372849 101.486046 101.717003 102.183861 102.658775 102.427986 103.134659 103.497993 104.365456 104.820381 105.148804 105.653908 106.532867 107.580765 108.396027 109.198288 110.195427 111.395363 112.349297 113.394783 113.578873 113.966675 115.016876 115.422806 115.841568 115.441956 115.847099 116.490364 117.346909 118.251846 118.385872 119.126541 119.872940 120.355042 120.125130 120.281158 120.045609 120.115150 120.052284 120.786438 121.032372 121.282761 121.107620 121.432228 121.365990 121.743042 121.966003 122.671959 123.211380 123.352539 124.167526 124.786934 125.793953 126.107399 126.297951 126.955040 128.148346 129.367371 130.383392 131.720947 132.671341 133.524887 134.193298 134.933502 135.328949 135.337341 134.967361 135.389587 135.308151 135.532242 135.509033 135.264404 135.888992 136.246964 136.060013 136.594955 136.768143 136.189697 136.345749 135.970413 136.281555 136.923309 137.407700 137.632889 137.537720 138.045837 138.182098 138.342514 138.552948 138.919159 139.650223 139.788025 140.431931 140.780975 140.666595 140.902374 141.186111 140.976685 141.224594 141.355942 141.864258 142.670486 143.301224 144.049728 144.212997 145.165329 145.572433 145.939102 146.671692 146.952484 147.126404 147.849609 148.124496 148.408340 148.742233 149.784653 150.117584 150.370117 150.794342 151.311813 151.835892 151.756134 152.271378 152.442093 152.769547 153.253204 153.559174 153.708008 154.252731 154.091599 154.607315 154.333771 154.455414 154.928116 154.833923 155.285004 155.015289 155.078186 155.429001 155.497162 155.335999 155.609787 156.276352 156.722427 157.438202 158.113815 158.799026 159.635895 160.288406 160.689087 161.338348 162.256088 162.888779 164.203217 164.888550 165.950989 167.158356 168.590897 168.893997 169.526474 170.649826 171.111389 171.391281 171.728561 171.670151 172.704285 172.915802 173.911484 173.957840 174.143311 173.989746 173.965408 173.770905 173.829971 174.142670 174.594452 175.092468 175.687958 176.806320 177.570877 178.777725
112.276207 110.266014 108.896858 107.823006 106.866676 105.870682 105.265022 104.204437 103.204018 101.870743 101.232750 100.668678 99.618462 98.771782 98.477264 97.554344 97.434769 96.955200 96.639297 95.946655 95.987823 94.889359 94.469002 94.314056 93.487106 92.606865 91.974594 91.501755 91.444725 91.144165 91.304153 91.192230 91.213844 90.947540 90.855659 90.589622 90.612846 90.543159 90.876816 90.626122 90.538605 90.924141 90.359665 90.517014 90.362823 90.526718 90.927689 90.563850 90.849182 90.766251 90.878944 91.511139 92.011795 92.744087 93.275551 94.084503 95.078583 96.103943 97.162910 98.438660 99.109604 99.769295 100.295837 100.026718 100.079491 100.143677 100.227905 99.793739 99.690208 99.323502 99.170868 99.404289 99.591042 99.838982 99.827507 99.868042 99.567696 100.106689 100.233086 100.304916 100.736389 100.976730 101.486824 101.691422 101.791702 101.581627 100.927437 100.485756 100.226067 100.283974 100.859306 100.858925 101.308304 101.997681 102.135376 102.303474 103.205330 103.429367 103.577843 103.644272 104.541763 104.979553 105.311050 105.629860 106.620934 107.170135 108.065186 108.903122 109.510483 110.686470 112.146652 113.035049 113.554031 114.035400 114.810661 115.072861 115.635025 115.738434 115.907684 116.487671 116.758797 117.704720 118.178566 118.754501 119.404480 119.702705 120.287987 119.929848 119.832809 119.941620 120.066338 120.308449 120.931313 121.082237 121.234894 121.450340 121.618973 121.538963 122.252991 122.191460 122.870438 122.942490 123.770393 124.541313 124.578514 125.430649 126.295242 126.271187 127.050705 127.933655 128.775925 129.749237 131.034882 131.879105 132.921051 133.602753 134.157089 134.820129 134.500488 134.679855 135.057602 135.329086 135.557938 135.643036 135.815125 135.990540 135.949615 136.663223 136.689423 136.569397 136.169540 136.194931 136.162827 136.960983 137.122086 137.701340 137.528549 137.982346 138.205933 137.964447 138.245438 138.660248 139.055923 139.823410 140.424072 141.088547 141.422852 141.301010 141.324844 141.311752 141.622253 142.403503 142.977341 143.318680 143.961090 144.550674 144.986084 145.492813 145.766312 146.096664 146.718323 147.134430 146.902084 147.316101 147.828339 148.692398 149.015884 149.363449 150.070465 150.331543 151.101486 151.209137 151.611298 151.859406 152.249146 152.748520 153.069366 153.269348 153.840973 153.916748 153.949493 154.504150 154.332275 154.400040 154.366043 155.392120 155.878006 155.625351 156.267700 156.401672 156.535492 156.442139 156.463287 156.527985 156.454742 157.146744 157.527863 157.780106 158.460510 159.076904 159.634598 160.659515 161.453796 161.928650 162.864044 163.395355 164.493896 165.156952 166.056152 167.451096 168.822586 169.348572 169.760040 170.898529 171.311249 172.251984 172.528839 172.768616 173.181595 173.854996 174.343262 174.096863 174.199738 173.995255 174.317978 174.253326 174.018463 174.716095 175.195099 175.903595 176.809616 177.760056 178.826065 179.008743
111.677460 109.909470 108.456551 107.409821 106.645088 106.179016 105.402382 103.993027 103.121056 101.599747 100.638916 99.537247 98.832527 98.675713 97.905289 97.634010 97.383995 97.267319 97.128754 96.162117 95.359108 95.408356 95.049522 94.573250 93.391022 92.829788 91.916771 91.536057 91.514908 91.830666 91.724609 91.550941 91.836357 91.227921 91.050346 90.526726 90.479324 90.391663 90.181107 90.666603 90.538681 90.133629 90.465569 90.896400 90.468857 90.698387 90.442055 90.424606 90.851845 90.831276 91.034309 91.666489 91.601898 92.021446 92.839973 93.304268 94.544365 95.804474 97.246384 98.060585 99.084717 99.853256 100.412300 100.122871 100.109169 99.860329 100.101974 100.446457 100.121696 99.686890 100.097328 100.167755 100.256569 100.388107 100.616722 100.632179 100.474701 100.830887 100.963646 101.388916 101.989693 102.040512 102.352898 102.782249 102.696472 102.173195 101.359901 101.291527 100.654854 100.363472 100.580109 100.957092 101.707359 102.130363 102.724960 102.956551 103.691597 104.052055 104.325249 104.997391 105.555702 105.665703 106.123466 106.229744 107.489754 108.028244 108.775864 109.051697 110.229507 111.680252 112.546349 113.096130 113.999977 114.540108 115.544250 115.682060 116.178970 116.063515 116.324974 116.814392 117.901077 118.308571 118.868935 119.503166 119.605797 120.377083 120.711769 120.400642 120.776062 120.370918 120.443222 120.631401 121.549667 121.648262 121.510612 121.576042 121.778564 122.075737 122.149315 122.445877 123.183403 123.570702 123.454956 123.973907 124.950020 125.269897 125.515335 126.165901 127.063972 127.178253 127.851006 128.945145 130.184448 131.559097 132.704178 133.322632 133.665573 133.869553 134.380035 134.340607 134.637329 134.933273 135.510315 135.902206 135.891434 136.070908 135.684509 136.254547 136.558136 136.487015 136.474106 136.549332 137.002090 137.132797 137.454468 137.812790 137.410034 137.957245 137.744751 138.136642 138.041595 138.841385 139.533890 140.251999 141.022812 141.532059 142.115509 142.469711 142.617523 142.818924 142.720596 143.172012 143.970383 144.674255 145.423279 145.650513 145.917145 146.345123 146.741898 147.023834 147.095612 147.407700 147.552841 148.010300 148.280121 148.860779 149.690598 150.411758 150.546936 151.259369 151.855408 151.862015 152.188797 152.079605 152.536346 153.017700 153.189743 153.854431 153.926331 154.149338 154.399429 154.162704 154.221344 154.748184 154.971924 155.653366 156.366608 156.940689 156.758301 156.903351 156.830963 157.340286 157.309830 157.855179 158.047943 157.965515 158.447678 158.934036 159.596176 159.769302 160.302261 160.883606 161.552460 162.447525 163.089157 164.008148 164.342606 165.365509 166.888580 167.566650 168.233902 169.255264 170.582977 171.425964 172.299713 173.099609 173.654526 173.458893 173.839233 174.222290 174.695190 174.171753 174.685867 174.774902 175.087311 175.095078 175.011856 175.013184 176.154572 176.932037 177.525848 178.237534 179.077271 179.946365
111.499382 109.870857 107.960060 107.303436 106.911987 106.168106 105.196846 104.026901 102.217186 100.829529 99.641525 98.605537 98.572571 97.781784 97.731216 97.296097 97.286522 97.024704 97.001640 96.242401 95.981026 95.960396 95.753983 94.578819 93.670059 93.090538 92.487976 92.048187 92.632698 92.369759 92.891563 92.671814 91.996063 91.745628 90.983475 90.492729 90.232681 90.158463 90.226532 90.292305 90.294731 90.583153 90.719749 90.797897 90.518684 90.314171 90.093117 90.060806 90.196022 91.082123 91.027527 91.428871 91.500450 92.096458 92.734154 93.433037 94.308006 96.051720 97.007507 98.078529 98.734688 99.256401 100.009232 100.338020 100.529678 100.281181 100.835800 100.577553 100.671356 100.426468 100.513252 100.654739 100.936836 100.981812 101.183037 101.141144 101.495033 101.984192 102.201439 102.608963 102.657494 102.919685 103.319733 103.267906 103.056351 102.355858 102.049194 101.724174 101.145248 100.508873 100.824753 101.424164 102.057457 102.862167 103.511887 104.270256 104.442749 105.152351 105.593315 106.261444 105.984261 106.106750 106.453323 107.106445 107.492538 108.312225 108.854431 110.094604 110.825455 112.326996 113.126648 114.053947 114.687813 115.296982 115.761787 115.944389 116.075294 116.039124 116.518654 117.110146 117.927147 119.134811 119.366379 119.738304 120.109779 120.743530 121.019875 120.740158 120.673950 120.530388 120.650162 120.763016 121.160721 121.416756 121.584763 121.795219 121.826584 122.299179 122.653397 122.598190 122.920151 122.992912 123.239098 123.421158 123.881950 124.392212 124.817513 125.675575 126.057564 126.847900 127.353836 128.670929 129.994797 131.361664 132.286560 132.434616 133.274612 133.290192 133.503036 133.555542 134.427368 135.113464 135.456497 135.134140 135.204742 135.910355 136.084061 136.775085 136.606415 136.552048 136.608643 136.827438 137.266357 137.339111 137.869965 137.690536 137.991547 137.970078 138.463394 138.534821 138.366653 139.048080 139.802490 140.746429 141.995132 142.542587 143.374985 143.563965 143.538193 144.157944 144.058640 144.769836 145.117203 145.735504 146.851028 146.901566 147.046860 147.442581 147.308167 147.840988 147.902771 148.168701 148.094406 148.560181 149.451065 150.075531 149.999435 150.992706 151.114914 151.713181 152.005966 152.319977 152.625946 152.933304 152.921524 153.301865 153.318420 153.871277 154.547958 154.503754 154.406799 154.716675 154.949326 155.733047 155.981934 156.603073 156.720871 157.228989 157.025024 157.788742 157.801025 158.029022 158.606232 158.964386 159.256119 159.415512 159.974564 159.871216 159.825211 159.995178 160.789062 161.298233 162.116531 163.143768 163.613525 163.974304 164.722473 166.029694 166.780701 167.361343 168.563828 169.575928 171.216293 172.475082 173.428162 173.968811 173.900650 174.365387 174.493790 174.751785 174.644455 174.964096 175.120697 175.556015 175.735840 175.607071 175.979874 176.188934 176.762741 177.668518 178.057220 179.014389 179.799438 180.394180
110.822517 109.423119 108.447159 106.972038 106.297691 106.068932 104.458641 102.982811 101.673569 100.563980 99.594803 98.789711 97.786949 97.540070 96.995193 96.955254 97.182022 97.172180 97.076988 97.021660 96.975311 96.122513 95.423386 94.760376 94.254463 93.671753 92.855179 92.799675 92.973511 93.401253 93.134651 93.013161 92.218948 91.842232 91.236427 90.060799 89.748474 90.167343 90.049469 90.025703 90.171944 90.472183 90.599960 90.519379 90.270744 90.061935 89.808228 89.948616 90.179901 90.534660 90.728539 90.980667 91.004700 91.881584 92.639809 93.579475 94.483330 95.928963 96.931145 97.663330 98.704788 99.472420 100.201157 100.044731 100.413345 100.808975 100.975891 101.227051 101.189659 100.554718 100.736282 100.956886 101.084167 101.351196 101.239159 102.049141 102.140602 102.519295 102.524757 103.041039 103.311287 103.685524 103.752548 103.555298 103.166481 102.850266 102.318481 101.621834 101.302322 101.187988 101.612267 102.212563 102.803001 103.748184 103.905838 104.780273 105.060394 105.977409 105.960464 106.550606 106.749115 107.359169 107.075920 107.719391 108.352036 109.369682 109.533997 110.570320 111.776970 112.913925 113.824539 114.554771 115.260117 116.056870 116.126137 116.029305 116.257301 116.721367 117.117546 117.457359 118.769234 119.502327 119.987534 120.396896 120.915695 120.847092 121.089157 121.298241 121.065643 121.358780 121.053627 121.409760 121.596680 121.738289 122.073463 122.073997 122.436562 122.420013 122.688210 122.591583 122.574043 122.769661 122.998390 123.375244 123.860909 124.282570 124.773643 125.564041 125.868744 126.372307 127.466713 128.082260 129.304947 130.711929 131.591568 131.846008 132.222076 132.131180 132.450394 133.297821 134.127090 134.276230 134.610840 135.033829 135.540466 135.915314 136.377457 136.713120 136.597488 136.323425 136.686325 136.754761 137.418427 137.887268 137.720764 138.247589 137.949509 138.311234 138.599213 138.411270 139.007065 139.853806 140.338745 141.619919 142.466064 143.348709 144.479660 144.772247 144.752975 144.609283 145.285904 145.543198 145.899872 146.711029 146.782089 147.077606 147.880569 148.197159 148.420319 148.532211 148.418671 148.417313 149.045898 149.551483 150.035065 150.418671 151.171143 151.015564 151.444107 151.545670 152.044601 152.464478 152.588715 153.088577 153.243469 153.352264 153.919434 154.260178 154.794540 155.429199 155.025391 155.747147 156.014725 156.156555 156.393784 157.292511 157.757202 157.620926 157.922897 157.713730 158.391327 158.859528 159.603638 159.799484 160.370819 160.223862 160.130753 160.520355 160.427094 160.647324 161.269150 161.662277 162.847977 163.276169 163.981323 164.362793 165.229828 166.149231 166.653687 168.236481 169.169495 170.787033 171.979523 173.368088 174.207581 174.729675 174.876129 175.167038 175.114273 174.980896 175.358337 175.647949 176.104584 176.151199 176.305176 176.543076 176.483749 176.598526 177.305206 178.085175 178.641586 179.622086 180.191055 180.802734
110.310242 108.937378 107.907417 106.916992 106.418991 105.181122 104.294807 103.088226 101.243202 100.106537 99.377121 98.266914 97.512650 96.710175 97.043625 97.007584 97.388374 97.169403 96.978638 96.894958 96.554749 96.060104 94.891983 94.310173 94.163719 93.713348 93.220825 92.936844 93.310310 93.217270 92.804054 92.538109 92.005081 91.154633 90.772095 89.847969 89.777412 89.524246 89.830116 89.824593 89.731285 90.277809 90.028687 90.276360 90.627991 89.944427 89.670128 89.798218 89.983452 90.412674 90.776276 91.074768 91.624245 92.168259 92.847939 93.956573 94.906319 95.739578 96.775215 97.793114 98.914024 99.424179 100.015160 100.381950 100.818825 101.390900 101.292137 101.397736 101.212204 100.925110 100.968117 101.069740 100.623535 101.109741 101.750160 102.181831 102.074608 102.953400 102.762749 103.130592 103.437294 103.560753 103.841400 103.475723 103.097031 102.679024 102.395905 102.161552 102.134148 102.411156 102.613792 103.082153 103.482521 103.901329 104.611397 105.305748 105.755394 106.585167 106.769653 107.549294 107.589027 107.548820 108.171082 108.753479 109.157730 109.955650 111.036980 111.594246 112.342697 113.549873 114.239204 115.163689 115.392960 115.976982 116.349678 116.453674 116.453522 116.741867 117.670296 118.080521 118.855591 119.690727 119.887726 120.766205 121.136948 120.553017 121.266609 121.552040 121.261024 121.617767 121.659782 121.810280 121.915100 122.242737 122.434242 122.583244 122.371353 122.872040 122.708946 122.546936 122.556763 122.559998 122.993797 124.054443 124.398193 124.757210 124.829247 125.621910 125.811775 126.469696 127.336426 128.270996 128.913559 130.287033 130.952271 131.523209 131.560150 131.832886 132.231049 132.900711 133.264572 134.085083 134.472214 134.824265 135.427826 135.766983 135.875061 136.384567 136.294159 136.765167 137.410843 137.506409 137.554214 137.813919 138.055984 138.012375 138.155228 138.092178 138.007767 139.057022 139.833130 140.453018 141.147964 141.847534 143.357269 143.944473 144.689697 145.395004 145.410599 145.507019 145.641464 145.806061 146.066681 147.014954 147.465851 148.018631 148.689484 148.913086 148.908340 148.990707 149.117081 149.900925 149.723022 150.001511 150.685867 151.058716 151.173019 151.441833 151.545090 151.935028 152.265305 152.177765 152.914627 152.789017 153.488083 153.619263 154.007706 154.578552 155.337189 155.841980 156.060486 156.266144 156.619247 156.851044 156.953674 157.917145 157.986359 157.748322 158.058289 158.447357 158.899643 159.513641 159.720932 160.462708 160.617477 160.753174 160.964584 160.974396 161.310135 161.148026 161.644699 162.417007 162.905685 163.498734 164.164658 165.024445 165.826691 166.754761 167.912247 169.058609 170.887451 171.832458 173.247025 174.563751 174.840240 175.431076 175.357635 175.627716 175.934509 176.239761 176.356567 176.458740 176.696396 176.429260 176.543137 176.945190 177.020691 177.219330 177.735184 178.488617 179.441574 179.796921 180.331680 180.667694
110.202606 108.835388 107.386658 106.586250 106.059502 104.877281 103.436317 102.418243 101.069244 99.807884 98.509697 97.171791 97.177345 96.658852 96.667168 96.968811 97.019783 96.897774 96.746475 96.526703 95.679314 95.262436 94.734566 94.856209 94.075111 93.785179 93.453583 93.531189 93.349831 92.985397 92.769241 92.268021 91.520805 91.342476 90.284538 89.635765 89.385391 89.059174 89.004539 88.965500 89.711342 89.694801 90.232872 89.908585 89.667770 89.412521 89.580193 89.608261 89.403984 89.965019 90.715927 91.179779 92.183846 92.636009 93.775139 94.333641 95.273514 96.074570 97.018471 97.928261 98.850471 99.236595 100.009315 100.211067 100.576477 100.659325 101.338959 101.014183 101.360214 100.739983 100.319397 100.661476 100.854897 101.217888 101.918320 102.372093 103.020432 102.801147 102.988014 102.660591 102.863693 103.310463 103.554779 103.417206 103.232803 103.024689 102.527435 102.657890 103.128250 102.902893 103.360832 103.882980 104.593002 104.960098 105.687065 106.068466 106.900032 107.295815 107.684074 107.671921 107.530182 108.399536 108.575356 109.242241 109.972382 110.309692 111.170982 111.939148 113.104492 114.389557 115.116623 115.596291 116.142342 116.081215 116.700851 117.016853 117.386269 117.608124 117.850220 118.930435 119.442894 119.762955 120.269669 120.653702 120.667160 121.201385 121.534744 122.026512 122.099747 122.137924 121.937424 122.223106 122.814354 122.756226 122.410080 122.448936 123.029297 123.013603 122.566467 122.471733 122.643829 122.784332 123.502441 124.250435 124.591705 125.022758 125.109497 125.459343 126.212204 126.540512 127.102959 127.837906 128.777267 129.835587 130.480682 130.921188 131.240417 131.394669 131.547333 131.983276 132.189072 132.779282 134.135773 134.446548 134.744843 135.809082 135.949905 136.341309 136.646545 137.231583 137.632019 137.733276 138.256454 138.283920 137.793198 137.832321 137.876328 138.288452 139.299271 139.971237 140.384277 141.085678 141.863358 142.625565 143.380875 144.534821 145.028839 145.525986 145.836212 146.404770 146.552078 146.517242 146.974411 147.726212 147.884842 148.603912 149.257339 149.326035 149.650681 149.874390 150.409760 150.336151 150.538986 150.946243 151.600616 151.564407 151.400894 151.772156 151.811722 151.990891 151.831009 152.832825 153.149109 153.228683 153.328217 153.883148 154.415695 154.989197 155.605576 156.200974 156.259033 156.414642 156.535461 156.788116 157.163712 157.713577 157.655640 157.630051 157.692657 158.191895 159.250366 159.686844 160.491699 160.705017 161.348099 161.344177 161.390823 161.289352 161.581314 161.622635 162.008255 162.722397 163.114441 163.438675 164.374161 165.501343 166.117340 167.536987 168.482910 170.095490 171.787659 173.203629 174.243378 175.525528 175.722580 175.841202 175.968460 175.860992 176.562561 176.660706 176.897141 176.833450 177.263962 177.152527 177.573364 177.704239 177.809280 177.837646 178.337662 178.949707 179.271515 180.100815 180.317184 180.547623
109.981560 108.481865 107.117447 106.629860 105.817154 104.684875 103.324028 101.855553 100.455215 99.518471 97.997421 96.988762 96.726257 96.693825 96.534569 96.389893 96.685814 96.858559 96.506660 95.603050 95.382515 94.691719 94.625145 94.478317 93.936752 93.608047 93.653351 93.361298 93.418579 93.069382 92.540054 92.275665 91.608604 90.867508 90.231987 89.563309 88.735611 88.538040 88.361954 88.375969 88.992531 89.430885 89.971016 89.913902 89.606033 88.609322 88.777771 89.056534 89.122612 89.776291 90.627792 91.459030 92.405594 93.076332 93.818176 94.581810 95.851952 96.672577 97.141533 97.466537 98.326385 99.090431 99.753929 99.982262 99.979347 100.478127 100.860214 101.205742 100.728569 100.649986 100.655731 100.759369 100.785133 101.581451 102.050087 102.854576 102.839043 102.709068 102.541771 102.399086 102.437141 102.849319 103.392921 102.851151 103.462326 102.877533 103.111320 103.247627 103.335335 103.760185 103.986908 104.591515 105.546547 106.508041 106.608383 106.928688 107.419624 107.431160 107.839935 108.003349 108.193565 108.992287 109.408310 109.573532 110.264130 111.033119 111.929382 112.615700 113.289467 114.158745 115.194115 115.530113 115.966896 116.396637 116.763130 117.206505 117.473228 118.156624 118.957672 119.382034 119.667397 120.597168 120.699570 121.397163 121.930817 122.133095 122.409462 122.909821 122.574974 122.907867 123.236877 123.121353 123.137894 122.928810 123.172447 123.110146 123.131279 123.170212 123.036880 122.640564 122.982201 123.184784 123.938728 124.215347 124.691765 125.421249 125.886101 125.677620 125.818474 126.383873 126.920990 127.574341 128.693192 129.668747 130.616531 130.738983 130.279282 130.594193 130.527161 131.058838 131.659882 132.295609 133.368469 134.017410 134.478928 135.281891 136.004883 136.466339 136.448166 137.529282 138.085999 138.495926 138.250885 138.397644 138.349503 137.957489 138.469498 139.003281 140.084625 140.268173 140.616943 141.163757 142.126724 143.146271 144.128143 144.967255 145.296555 145.455002 146.017563 146.362793 146.629974 146.872040 147.701859 148.255188 148.346191 149.234222 150.174179 150.460907 150.566010 150.555573 150.733505 151.096085 151.531570 151.910538 151.602005 151.839828 151.525772 151.827896 151.828201 152.223236 152.348923 152.715256 152.934769 153.280655 153.832672 153.912674 154.668839 155.184555 155.969009 156.869980 156.709732 157.110687 157.422577 157.252884 157.394958 157.837662 157.321182 157.641785 157.970047 158.699066 159.436432 160.436569 160.562042 161.097107 161.632492 161.563385 161.359238 161.863663 161.845016 162.411209 162.818405 163.173935 162.907501 163.690384 164.257339 165.900391 167.093689 167.904205 169.716675 171.077591 172.736450 174.284622 175.575974 176.376999 176.602448 176.879578 176.600937 176.421768 176.509308 176.996109 177.340469 177.466248 177.820221 177.786652 178.169922 177.917679 178.146805 178.495956 178.807602 179.747940 179.844406 179.918930 180.574524 180.638702
109.611763 108.292908 107.446312 106.858788 105.573914 104.432503 103.220367 101.803085 100.442841 98.868431 97.935310 96.722496 96.508339 96.942719 96.359062 96.378120 96.606743 96.179993 95.636292 95.056320 94.743401 94.628448 94.768578 94.428017 94.002319 93.982674 94.128304 93.877617 93.672943 92.971771 92.694412 91.888184 91.291382 90.453575 89.967171 89.082588 88.233589 88.064896 88.027710 88.608749 88.816933 88.649727 88.854713 88.305664 88.391884 88.273102 88.092377 88.755714 89.494370 90.383049 90.873390 91.119392 92.318092 93.065727 93.935944 94.860046 95.974205 96.676781 97.524284 97.877312 98.886063 98.991920 99.245323 99.430153 100.122879 100.434441 100.200302 100.502205 100.244629 99.944962 100.258293 100.847267 101.295486 101.646454 102.230873 102.324974 102.845924 102.874458 102.381294 102.059395 102.428284 103.102737 102.895172 103.169861 103.429337 103.766174 103.660904 103.764526 103.942879 104.231140 105.021194 106.219307 107.087532 107.213417 107.662086 108.029190 107.829712 107.914154 107.560905 107.955696 108.157623 108.593643 109.707123 110.175896 110.466644 111.550247 112.350662 112.842667 113.738953 114.650055 115.422836 116.060654 116.492783 117.180145 117.492088 118.037575 118.050102 118.991371 119.367485 119.383743 120.360771 120.990036 121.567299 122.289322 122.284561 123.061394 123.230270 123.466141 123.827942 123.847534 123.623215 123.646652 123.408676 123.242409 123.498573 123.163025 123.371788 123.134026 122.979683 123.223236 123.386078 123.936394 124.238815 124.680229 124.617767 124.967163 125.483223 125.198883 125.579025 126.446434 127.140335 127.804459 128.660461 129.486694 130.057281 129.508560 129.309479 129.363190 129.847992 130.358368 131.259796 132.027496 132.970322 133.910248 134.742584 135.349945 135.755753 136.267471 136.981567 137.919128 138.059494 138.657181 138.451218 138.629013 138.302460 138.795120 139.375748 140.141296 140.004745 140.325165 141.227386 141.790054 142.635696 143.846558 144.458679 144.951828 145.128845 145.703964 146.320877 146.912506 147.116348 147.589569 147.846054 148.381271 149.432083 150.305649 150.623657 150.943466 151.277573 151.561417 151.626328 151.639603 151.920776 151.991364 152.410461 152.262833 152.212906 151.597702 151.607422 152.244690 152.443695 152.876282 153.016678 153.671036 153.953476 154.717300 155.170212 156.186768 156.849625 157.032120 156.954346 157.069641 157.372559 157.555252 157.746277 157.693710 157.524445 158.091003 158.182907 158.688293 159.735107 160.585922 161.488342 161.589798 161.594299 161.623108 162.162094 162.394760 162.181824 162.637650 162.804825 163.177826 163.165298 163.552353 164.940521 166.024002 167.293106 169.005936 170.646255 172.434937 173.738647 175.473083 176.366104 176.940933 177.050156 177.306107 177.364807 177.164780 177.610428 177.528107 178.208344 178.350555 178.057220 178.684738 178.582916 178.663910 178.643356 179.234695 179.750549 179.708008 179.950470 180.245544 180.255005 180.574219
109.770134 108.885895 107.896004 107.060860 106.297134 104.765404 103.164749 101.750298 100.439301 98.788849 97.825890 97.094528 96.670448 96.689049 96.692345 96.768425 96.211891 95.828300 94.836075 94.728844 94.902596 94.228561 94.326508 94.610199 94.616341 94.509041 94.187828 94.172234 93.814926 93.252960 92.541298 91.530746 90.900398 89.970848 89.095703 88.742195 87.910904 87.871147 88.197281 87.873093 87.714371 87.705338 87.337509 87.724365 87.751740 87.885086 87.910309 88.744217 89.136559 89.757507 90.349022 91.224739 91.808876 92.920609 94.454430 95.088631 95.847542 96.487549 97.398308 98.129997 98.542107 99.083534 99.112175 99.350792 99.521179 99.627762 99.974594 99.911400 99.758690 100.110229 100.459274 100.738785 101.243240 101.601204 101.966980 102.289337 102.469635 102.089973 102.348076 102.243073 102.397247 102.889442 103.280739 103.098953 103.491287 103.526451 103.890198 104.511681 105.106728 105.506142 106.855827 107.596443 108.483437 108.658478 108.649269 108.610817 108.546303 108.103035 107.654869 107.326057 108.046371 108.770988 109.957596 110.701080 111.182632 112.025482 113.358284 113.804008 114.490097 114.776253 115.736946 116.646172 116.813622 117.479111 118.031540 118.792862 119.090263 119.390785 119.901146 120.440376 121.756248 122.025742 122.328934 122.967705 123.224533 123.570099 124.001831 123.885002 124.188850 124.282913 124.020943 124.370338 123.997513 124.054787 123.789154 123.783180 123.058350 123.104721 122.745415 122.990921 123.447426 123.810616 124.571228 124.609894 124.636826 125.334595 125.381195 125.465866 125.490036 126.500114 127.272186 127.744354 128.297958 128.543564 128.887085 129.077545 128.776596 128.760452 129.406509 129.878403 130.489258 131.070862 132.586411 133.252014 133.712219 134.798431 135.578323 136.695496 137.177094 138.233002 138.447693 138.987976 138.685699 138.870453 138.672180 139.201813 139.229401 139.774551 140.365677 140.792099 141.623642 142.485809 143.530792 144.147354 144.634979 144.848099 145.155807 146.105057 146.489716 147.286057 147.799866 148.303879 149.140717 149.595245 150.358856 151.066559 151.538116 151.741318 152.218140 152.370834 151.789719 152.323914 152.444199 152.687439 152.701218 152.547791 152.344727 152.143524 151.917618 152.442917 152.781784 153.125931 152.942657 153.912155 154.328339 155.334518 155.954239 156.279877 157.081421 156.955383 156.909546 157.090134 156.970322 157.338943 157.325943 157.384659 157.694794 157.912201 158.252930 158.841309 159.689377 160.650284 161.136520 161.389282 162.126190 162.419006 162.548584 162.921371 163.063080 162.809616 162.800903 163.111221 163.469498 164.080704 165.432449 167.238358 168.383987 170.132645 171.682144 173.508606 175.178024 176.464752 177.394806 177.761276 177.588638 178.091614 177.749390 178.068832 178.010056 178.159973 178.727066 178.779602 178.981949 178.871490 179.376953 179.827957 179.711258 179.934341 179.892899 179.950287 179.930832 180.260345 180.447662 180.595139
110.652161 109.603775 109.000473 108.212395 106.599564 105.099800 103.631996 102.181709 100.439537 99.273293 98.016075 97.282867 97.001411 97.219299 97.024712 96.854942 96.296181 95.564621 94.864876 94.447670 94.159256 93.995010 94.027748 94.274345 94.314247 94.906754 95.268127 94.524536 93.880592 93.157921 92.001587 91.034607 90.651573 89.605682 88.682350 88.095924 87.420464 87.576874 86.980461 86.779686 86.563148 86.324799 86.448380 86.544769 87.144493 87.448578 87.795784 88.340614 88.925407 89.373535 90.006691 91.206963 92.164444 92.871033 94.214935 94.916222 95.853142 96.554672 97.898865 98.067421 98.939270 99.011978 98.673393 98.898483 99.007179 99.182816 99.047066 99.254486 99.159576 99.586037 99.849625 100.004723 100.317711 101.007484 101.437569 101.571609 102.102562 101.943092 101.705879 102.192345 102.385666 102.309685 102.119156 102.589005 103.247398 103.778740 104.302071 104.896423 106.234825 107.868355 109.060753 109.887794 109.721069 109.277649 109.363693 109.066437 108.231789 107.506424 106.798088 106.707298 107.791473 108.658249 109.953735 110.499741 111.985878 113.199020 114.011986 114.336456 114.853149 115.443245 116.052544 117.073082 117.625252 117.887993 118.398643 119.395592 119.757797 120.369301 120.770988 121.268944 122.304413 122.829178 123.444160 123.921295 124.592827 124.377449 124.910439 124.947533 124.959602 125.530632 125.635399 125.525505 124.682915 124.602676 124.473373 123.818909 123.575737 122.820534 122.272812 122.900536 123.683434 124.161018 124.658562 125.005859 125.208084 124.703972 125.351051 125.644890 126.103165 126.547943 127.152382 127.818085 127.998619 128.395294 127.932388 128.268707 128.401947 128.584183 128.851196 128.864166 129.744095 130.430847 131.562668 132.080322 133.064041 134.045807 134.991486 136.108597 137.374863 138.512985 138.995651 139.443222 139.308319 138.898682 138.958603 139.154694 139.468033 139.850998 140.498703 141.294373 142.427643 143.080444 143.995407 144.369095 145.047318 145.641342 146.265427 146.703812 147.376984 148.214645 148.672119 148.955658 149.444305 150.486954 151.588577 152.170837 152.307297 152.733597 152.990402 152.961945 152.851288 152.773193 153.026611 153.400391 152.935410 152.805389 152.663742 152.374680 152.160736 152.528214 152.935440 153.257553 153.663620 153.824326 154.286865 155.062515 156.145569 156.815216 157.073364 157.006989 157.261490 156.807556 156.582001 157.199539 156.958588 157.208710 157.264221 157.477127 157.829651 158.559555 159.927994 160.698792 161.242554 161.755096 162.247345 162.572266 162.988251 163.140915 163.098434 163.280441 163.408157 163.644150 163.825317 165.053360 166.176224 167.849106 169.298492 170.857773 172.899979 174.790344 176.496643 177.592804 178.095245 178.248520 178.459839 178.892380 178.735306 178.503128 178.612579 179.076981 178.880768 179.104843 179.305161 179.678787 179.577820 179.755692 180.208542 180.396286 180.659439 180.457138 180.481461 180.248718 180.772507 180.897324
111.863548 111.047882 110.249588 109.156776 107.396713 105.599724 104.103111 102.138191 100.913300 99.331383 98.311859 97.441879 97.692619 97.146370 97.591934 96.931778 95.997932 95.284317 94.985718 94.447739 94.230530 94.214447 94.396301 94.288933 95.421249 95.735046 95.317802 94.487350 93.630714 92.734795 91.195862 90.781532 90.020218 89.601631 88.978363 88.072205 87.415337 86.750954 86.043289 85.777458 85.379715 85.306404 85.420868 85.679382 86.170906 86.780052 87.595032 87.939499 88.531517 89.148956 89.916374 90.954674 91.800789 92.780701 93.756729 94.787941 96.000992 96.884590 97.943771 98.240921 98.833527 98.735474 98.656746 98.621536 98.636086 98.779373 98.681152 99.152466 99.033287 99.122276 98.999443 99.561661 100.122955 100.560249 100.891121 101.425865 101.706398 101.948975 101.997604 102.128639 101.586891 101.903305 102.488373 103.234581 103.713524 104.074463 104.985367 105.902443 107.716187 109.328506 110.768112 110.915970 110.543633 110.110214 109.246452 108.615868 107.633606 106.433105 105.943886 106.485176 107.331924 109.140648 110.100525 111.242126 112.201927 113.435173 114.284309 114.842148 115.550682 116.218819 117.065155 117.393105 117.759529 118.539513 119.135460 120.112862 120.719757 120.812248 121.651123 122.917969 123.260025 124.236084 124.465050 125.178352 125.531219 125.405449 125.435249 126.462181 126.424141 126.975441 126.799667 126.700600 126.100128 125.911491 125.496178 124.244980 123.136169 122.546455 122.330231 122.609116 123.046539 123.717239 124.600670 124.936493 124.490120 124.694359 124.708336 125.554794 125.732651 126.319084 126.750160 126.602715 127.612617 127.505386 127.364708 127.507210 127.619629 127.815407 127.854263 128.021240 128.999756 129.655838 130.162766 131.295334 132.169022 133.529190 134.242554 135.548370 137.049118 138.247421 139.072113 139.835007 139.257858 139.299561 139.097321 139.667114 139.882584 140.404877 140.460678 141.468292 142.825790 144.043854 144.840561 145.324615 145.683929 146.376785 147.289612 147.730560 148.054382 148.644577 149.321381 149.498062 150.984711 151.500717 152.595123 153.245346 153.195648 153.739716 153.526306 153.533936 153.752914 153.563644 153.514771 153.374344 153.168411 152.948303 152.943787 152.729141 152.778748 152.650146 153.219101 153.140976 153.350067 154.063110 154.626556 155.410187 156.157318 156.734253 157.063431 156.777969 156.788589 156.524094 156.656891 156.559128 156.497162 156.844284 156.724762 157.159256 157.836731 158.952011 160.153839 161.083023 161.372681 161.936234 162.507248 162.924713 163.462509 163.282867 163.237137 163.499969 164.070831 164.171158 164.291672 165.479233 166.682587 168.255661 169.470886 171.257324 173.404770 175.675659 177.516251 178.533829 178.695145 178.638916 178.884552 179.037384 179.288361 179.265518 179.479004 179.123871 179.305496 179.405106 179.484451 180.158722 180.418259 180.721390 180.892365 181.209427 180.811432 181.006149 180.530533 180.917801 180.619553 180.847748
112.779305 111.970123 110.812675 108.894302 107.600128 105.885132 103.867966 102.166214 100.756363 99.349030 98.327148 97.803825 97.686874 97.438911 97.083595 96.537132 95.601837 95.241692 94.553871 94.391411 93.977448 94.604530 94.678642 95.120903 95.648422 95.606300 95.435547 94.524048 93.576126 92.097954 91.053078 90.783089 89.777725 88.972763 88.175331 87.565521 86.970718 85.625610 85.377838 84.715370 84.806770 85.164383 85.180206 85.954033 86.647301 87.446602 87.711113 88.726509 88.796822 89.013924 90.482285 91.097656 91.816925 92.926048 94.224495 95.284431 96.132172 97.037544 97.825768 98.489571 98.908554 98.595230 98.542625 98.263496 97.997696 97.954109 98.265106 98.356377 98.301186 98.591576 98.609940 99.270447 99.954102 100.509705 101.051849 101.663620 101.608727 101.470505 101.770432 101.791939 101.847916 102.107567 102.629471 103.603989 104.420189 105.079300 106.198349 107.488388 108.491638 109.904686 110.716232 111.389786 110.678383 109.850792 108.603485 107.613846 106.783409 106.122467 106.425163 107.106575 108.119865 109.392136 110.936234 112.173256 113.201904 113.865654 114.930252 116.110703 116.259857 116.923454 117.339737 118.454735 118.555344 119.578430 119.835541 120.615265 121.596748 122.276688 122.303078 123.239311 124.082718 125.051849 125.459579 126.059608 126.048729 126.540474 126.938560 127.416466 127.669113 127.673309 127.048592 126.637726 126.383148 125.833443 125.085167 124.327606 123.122696 123.077522 122.722939 123.282654 123.508583 124.135841 124.503792 124.345261 124.508163 124.837288 124.808052 125.299202 125.350197 126.041092 126.373146 126.461563 127.231834 126.822731 127.139107 126.929977 127.076988 127.129601 127.560638 128.107422 128.473877 128.934738 130.028961 130.813721 131.620148 132.974548 134.158981 136.033127 137.388840 137.713150 139.159531 139.260086 139.446671 139.433960 139.414337 139.829666 140.121353 140.266357 140.998077 141.604263 143.304550 144.427231 145.102692 145.474808 145.859161 146.972366 147.682724 148.240646 148.903885 149.208801 150.077499 151.059128 152.022842 152.695389 153.270889 153.485138 153.850418 154.187958 154.135468 154.437439 154.171402 154.291489 154.180206 153.877228 153.193115 152.719131 152.622635 152.839966 152.793900 152.555847 152.720505 153.007462 154.132996 154.239761 155.151703 155.631577 156.296722 156.524277 156.717926 156.890625 156.545731 156.744629 156.337448 156.369339 156.048645 155.873260 156.702881 157.371048 158.358215 159.432648 160.363815 161.019669 161.483871 162.422470 163.054718 163.300720 163.601700 163.862717 163.670242 164.224960 164.582901 165.060730 165.547440 166.580994 167.201675 168.950287 170.965317 172.468491 174.866608 176.532257 178.029236 178.845993 179.398239 179.173828 179.619125 179.481491 179.581406 179.560684 179.284576 179.313629 179.731354 179.748901 180.271240 180.851944 181.102921 181.331589 180.987839 181.180344 180.858688 180.916702 180.695374 180.887985 180.497696 180.693695
112.815536 111.896057 110.386055 108.612076 106.857971 105.520805 103.368973 102.242897 100.703148 99.715164 98.296310 97.883820 97.286781 97.286003 96.862251 96.258171 95.462593 94.830666 95.012123 94.439323 94.506531 94.949928 94.917656 95.163429 95.313957 95.075394 94.533401 93.685425 93.104561 91.447189 90.888176 90.021133 88.936470 87.996033 87.172508 86.492050 86.135048 85.556740 85.139557 84.970383 84.945610 85.303200 85.680809 86.234695 87.235817 87.598488 88.101990 88.634842 88.882210 90.187134 90.788223 91.875946 92.461166 93.516739 94.085480 95.396912 96.440437 97.040878 97.564972 97.757385 98.430786 98.368233 98.401665 97.794014 97.799522 97.937973 98.197380 97.935730 97.995094 98.338531 98.775032 99.204887 99.983597 100.305382 100.929848 101.078888 101.263618 101.494255 101.277229 101.802612 101.951027 102.742737 103.413452 104.140434 105.407188 106.257423 107.612335 108.191879 109.041374 109.881493 110.570625 110.497513 109.785988 108.790611 108.101273 107.106567 106.880508 107.102364 107.141319 108.111183 109.270332 110.042801 111.768158 112.590965 113.362396 114.196220 115.461441 116.342056 117.049942 118.170303 118.676842 119.114609 119.478790 120.398972 120.513977 121.291710 122.298180 122.985962 123.658630 123.939560 124.925858 125.508354 126.345535 126.120621 126.542305 126.801331 127.099915 127.653023 127.745781 127.372391 127.026787 126.648964 126.169403 125.495552 125.052727 124.062202 123.810204 123.702202 123.790131 124.132774 124.007011 124.507217 124.466400 124.723557 124.445518 124.433784 124.925575 125.477257 125.569916 125.934181 126.054146 126.802765 126.464264 126.478493 126.984589 126.921402 127.231361 127.387497 127.304878 127.591187 128.318024 129.234192 129.752121 130.599075 131.873642 132.758469 134.426895 135.675797 136.320999 137.320679 137.750702 138.946960 138.708664 139.165543 140.023819 140.227112 140.475174 141.138550 141.905273 143.225983 144.292404 144.965042 145.449188 145.750626 146.297363 147.509598 148.096130 148.780548 149.219421 150.406815 151.301392 151.784531 152.484344 153.301682 153.431305 153.982803 154.414429 154.579941 154.680298 154.508698 154.745590 154.509094 154.056259 153.337448 153.059967 152.901154 152.400131 152.491196 152.352081 152.639404 153.494064 153.445709 154.312225 154.511307 155.490585 155.639709 155.949860 156.023087 156.684296 156.596329 156.420807 156.754822 156.278168 156.018707 155.916595 156.584351 157.376114 157.822708 159.171829 159.864609 160.748749 160.963669 161.753265 162.613846 163.015015 163.619171 163.879501 164.220383 163.931656 164.395813 164.859894 165.327393 166.531265 167.482315 169.066177 170.254303 172.145950 173.899490 175.713226 176.820084 178.133560 178.916031 179.354523 179.357925 179.655991 179.884521 179.866119 179.606918 179.385483 179.706329 179.645187 180.302963 180.954666 181.435944 181.625229 181.591995 181.751022 181.427643 181.191727 181.274506 181.233841 181.379562 180.999359 181.177277
112.025398 111.039154 109.713036 108.226929 106.427155 105.165977 103.970963 102.025948 101.072670 99.581718 98.296516 97.774521 97.638618 97.612709 96.484352 96.095016 95.722771 95.216103 95.336090 94.866760 94.370667 94.440804 94.775887 94.741852 94.638412 94.597809 94.292770 93.116867 92.183952 90.967636 90.234589 89.099571 88.339691 87.616051 86.996498 86.342667 86.091072 85.612892 85.939041 85.368423 85.562790 85.867592 86.318130 87.060181 87.669319 88.039040 88.329445 89.125191 89.516228 90.587471 90.878586 91.991013 92.595390 93.530037 94.345009 94.972977 95.570061 96.608383 97.361023 98.067360 98.139580 98.219864 98.014236 97.999123 97.438225 97.623337 97.734367 97.438438 98.014938 97.889236 98.587143 98.711639 99.619110 100.261162 100.429657 101.048904 101.103569 101.437805 101.287964 101.771660 102.330101 103.261879 104.883995 105.720978 106.111481 106.904442 107.236748 107.975853 108.880005 109.668831 109.943924 110.045128 109.060921 108.703575 108.197701 107.274956 107.086823 107.551491 107.929283 109.040695 110.083862 110.798080 112.168152 112.533806 113.697205 114.554146 115.705513 116.574493 117.426155 118.080902 118.812248 119.343872 119.524612 120.735474 121.660904 122.273941 122.801727 123.190186 123.920860 124.148170 125.222466 125.883255 126.706924 127.103157 127.369324 127.701836 127.617737 127.666946 127.546707 127.080711 126.464684 126.073715 126.254486 125.472984 125.371780 125.101891 124.669472 124.669708 124.352760 124.232796 124.598228 124.763397 124.191040 124.430542 124.251442 124.722191 124.557892 125.132172 125.221329 125.190346 125.806709 126.266975 126.169182 126.638756 126.767532 126.709778 127.027969 127.453918 127.434517 127.762978 128.817001 129.429596 130.297989 130.720749 131.515228 132.507095 133.684830 134.803818 135.782669 136.345535 137.575607 138.583252 139.373642 139.462769 139.915161 140.398453 140.865021 141.607407 142.816574 143.843903 144.759140 145.148148 146.022232 146.760910 146.983688 147.858795 148.533096 148.931458 150.196091 150.773666 151.575424 152.385834 153.478333 153.948563 153.903854 154.477081 154.358688 154.642685 154.943558 155.065735 155.300064 155.056335 154.182144 153.736557 153.594559 153.121185 152.443405 152.458267 152.549225 153.085464 153.474716 154.071335 154.275009 154.677307 154.901108 155.144730 155.419937 155.639587 156.083389 156.076401 156.466660 156.424881 156.520493 156.490906 156.417725 156.703003 157.369293 158.292404 159.313736 160.051331 160.941025 161.253571 161.856049 162.616806 163.546036 163.846283 163.898773 164.063232 164.352707 164.786865 165.380402 166.516006 167.644577 168.933182 170.226196 171.084869 172.690109 174.045013 175.271072 176.663452 177.711014 178.364853 178.627563 178.992905 179.588806 179.658615 179.638596 179.778976 180.132339 179.694351 180.349564 181.128143 181.394867 181.740921 182.118942 182.243073 181.838531 182.101059 181.862671 181.490967 181.700760 181.824097 181.397049 181.988464
111.507523 110.711121 109.516441 107.998833 106.834976 105.550865 104.127945 102.557915 101.336014 99.767334 98.849915 98.626030 97.970345 97.878822 97.437126 96.409843 95.945045 95.719452 95.337822 94.743629 94.619514 94.704208 94.390648 94.100906 94.020073 93.689896 93.320915 92.573235 91.895218 90.850311 89.764908 88.924072 88.297623 87.846855 87.153679 87.006165 86.177551 86.370041 86.249870 86.307640 86.151260 86.326492 87.160698 87.662689 87.709885 88.435509 88.536354 88.697830 89.485779 90.342361 91.375465 91.753357 92.271935 93.657433 94.307915 95.212082 95.882103 96.663376 97.285767 97.885757 98.175766 98.081879 97.900948 97.645576 97.271080 97.076691 97.277504 97.619865 97.556366 97.385078 98.190025 98.410164 99.045845 99.827278 100.435486 101.017532 101.112206 101.135941 101.535828 102.084709 103.440430 104.023224 105.356323 105.735939 106.183083 106.721848 107.230591 107.664780 108.090103 108.798317 109.276810 109.495575 108.696365 108.470039 108.211601 107.866470 107.521584 107.999329 108.067444 109.251610 109.671539 110.873657 112.107445 113.034637 113.780312 115.093285 115.974396 116.755234 117.757172 118.805099 119.351624 119.950233 120.145370 121.348091 122.159286 122.567726 122.826889 123.520470 124.193909 124.879257 125.384575 126.403717 127.372749 127.347778 127.904793 127.778526 128.071930 127.841660 127.591476 126.735977 126.237877 126.526047 126.529671 126.043167 126.261917 125.957809 125.852692 125.139343 125.241280 124.750000 124.885094 124.334969 124.224869 124.118782 124.227203 124.550186 124.140701 124.483688 124.550514 124.957443 125.404800 125.979286 126.021011 126.115425 126.286339 126.413330 126.461853 127.230217 127.666229 127.959251 128.577042 129.278320 129.873825 130.447235 131.449402 132.152786 133.222458 134.115372 135.347839 136.179413 137.264130 138.235901 139.269684 139.612946 140.283707 140.507370 141.377167 141.972137 143.626053 144.824371 145.588104 146.176117 146.171280 146.801437 147.534073 148.314880 149.150055 149.613251 150.298904 151.132141 152.398697 153.380280 153.949448 154.278122 154.412811 154.758835 155.209991 155.802490 155.949326 155.843323 155.658844 154.822754 154.271347 154.189224 153.568130 153.265656 152.387161 152.716766 152.955658 152.934494 153.151245 153.527588 153.526123 153.761856 154.019180 154.388916 155.004227 155.495422 155.714188 156.498734 156.593430 156.617050 156.348755 156.314285 156.637573 157.471008 158.121567 158.745377 159.103333 159.799500 160.671875 161.405945 162.407501 162.664230 163.707977 163.707489 163.950638 164.207916 164.671021 165.447342 165.880936 167.496857 168.798828 169.853210 170.162643 171.623566 172.810669 173.833054 175.485138 176.543716 178.058884 178.504532 179.030304 179.522018 179.729431 179.739334 179.967117 180.069550 179.690720 179.932388 180.805740 181.187500 181.724213 182.790787 182.980667 183.032379 182.410065 182.669983 181.901230 181.819595 182.179901 182.039093 182.221008 182.472900
111.187767 110.070351 108.820389 108.013611 106.446686 105.073570 103.713005 102.711555 101.346489 100.504463 99.489334 98.889481 98.292343 97.745277 97.259430 96.959709 96.277489 95.687897 94.975426 94.429436 94.489532 94.005386 93.726471 93.337646 92.737373 93.068275 92.405258 92.099632 90.670990 90.026947 89.135880 88.606400 87.960129 87.195877 87.300835 86.963585 86.608192 86.446602 86.444641 86.062607 86.206360 86.789062 87.020309 87.819489 88.102203 88.265495 88.524498 88.965981 89.796799 90.506386 91.344246 92.008598 92.961006 93.984482 94.617271 95.389503 95.858315 96.685989 97.407578 97.576424 97.876122 97.606705 97.461624 96.666649 96.991585 97.037643 97.099991 97.085182 97.240166 97.399597 98.243774 98.622520 99.404213 99.889381 100.244392 100.661240 101.202766 101.382790 101.500549 102.394592 103.854851 104.207397 105.197495 105.724274 105.965576 106.819664 106.999458 107.877075 108.464554 108.879303 109.494781 109.166588 108.989754 108.404297 108.154808 108.191040 108.123161 108.303711 108.828415 109.639519 110.394440 111.332306 111.762413 113.007088 113.780243 115.538216 116.816772 117.417450 118.174011 118.995338 119.492920 120.225563 120.913498 121.759056 122.811699 123.143265 123.257683 124.044411 124.123283 125.518723 125.985680 127.019516 127.438782 128.081177 128.077576 128.039474 127.762001 127.675133 127.470268 127.331230 127.179573 126.713020 126.640251 127.007980 126.571213 126.060440 126.257538 126.046059 125.466194 124.861748 124.471100 124.061691 123.992851 124.142044 124.252335 124.375008 124.452454 124.238213 124.378357 124.626938 125.162331 125.326706 125.692474 126.224556 126.044815 126.191895 126.685783 127.152985 127.354164 127.841385 128.450363 128.867935 129.513321 130.302002 130.671417 131.765594 132.497009 133.943069 134.633865 136.141800 137.106750 138.422363 139.395004 139.696289 140.417801 140.871307 141.629425 142.641159 143.943954 145.077911 146.047516 146.429047 146.569595 147.409103 147.954132 148.458313 149.557144 149.960022 151.210144 152.338425 153.431732 154.222473 154.497070 154.963120 154.964951 155.475220 156.204269 156.270966 155.759171 155.976059 155.410706 155.088120 154.718246 153.814117 153.585251 152.991180 153.049942 152.754852 152.665024 152.816528 152.910355 152.693130 152.609177 153.397888 153.540924 153.737198 154.536530 155.627304 156.009201 156.502319 157.071381 156.911621 156.443726 156.697311 157.061203 156.974625 157.878448 158.473862 159.575348 160.056061 160.690674 161.247238 162.176102 162.815430 163.438705 163.959518 163.910812 164.530670 165.183014 165.700592 166.920563 167.697586 168.526276 169.338623 170.780716 171.900131 173.064972 174.041534 175.495804 176.768326 177.851669 178.783234 178.772003 178.911621 179.578262 180.058655 180.277863 180.011795 180.304077 180.440643 180.865814 182.167068 182.712708 182.976273 183.041122 183.336929 183.019836 182.652725 182.467133 182.452103 182.538681 182.428528 182.897751 183.157135
110.326225 109.490158 108.640785 107.773155 106.239632 105.163765 103.461967 102.506210 101.520981 100.585045 99.566589 98.427658 97.919006 98.004211 97.392906 96.459557 96.330872 95.326477 95.001740 94.209930 93.763130 93.411842 93.004395 92.399399 92.414528 92.091492 91.289139 90.979622 90.046783 89.262993 88.406532 87.986931 87.444527 87.005135 86.916199 86.355942 86.172440 85.944328 86.525047 86.462563 86.513641 86.959740 87.241928 87.557190 88.103554 88.485207 88.730904 89.146423 89.564941 90.827400 91.118004 92.440102 93.367958 93.926926 94.719223 95.177666 95.886703 96.644226 97.280609 97.640137 97.554031 96.977165 96.642952 96.531715 96.584145 96.320190 96.184669 96.805023 96.710434 97.216148 97.762650 98.577408 99.174606 99.210266 99.926262 100.232712 100.946693 101.219421 102.018791 102.737625 103.418198 104.256783 104.797821 105.337395 105.860603 106.358627 106.852982 107.498245 108.572472 109.088974 109.353539 109.319237 108.867683 108.243805 108.021561 107.766777 107.999184 107.920967 108.894562 109.873550 110.154381 110.920822 111.953194 112.921745 114.335663 116.033081 117.118385 118.258171 118.602936 118.678329 119.394173 119.817863 120.955025 121.865059 122.822289 123.286087 123.966797 124.206596 124.734383 125.647789 126.327995 127.121422 127.503448 128.049362 128.254776 128.604218 128.538712 128.379425 127.997955 127.633850 127.601326 127.260376 127.272568 127.141426 126.972961 126.853226 126.235092 126.075775 124.987839 124.604362 124.713974 124.412514 124.464401 124.020348 124.185249 124.179893 123.941124 123.819916 124.278336 123.946381 124.500053 124.899635 125.248169 126.018402 126.120239 126.067039 126.443253 127.014053 127.128616 127.345177 127.974586 128.518890 129.203506 129.509979 130.619720 131.407852 132.245667 133.019714 134.342056 135.873016 137.477051 138.426285 139.088531 139.461090 140.020889 140.467300 141.830826 143.802841 145.028503 145.647736 146.320206 146.583405 147.053787 147.665466 148.914856 149.482635 150.908051 151.284073 152.405792 153.775330 154.419846 155.202927 155.552032 155.503006 155.949966 156.270309 156.639114 156.663681 156.358459 156.154358 155.398895 155.457535 154.755341 154.056992 154.182297 153.323441 152.943039 152.890778 152.471725 152.314392 152.122574 152.174576 151.694443 152.708542 153.105728 153.577118 154.650406 155.245178 155.863861 156.483566 156.401993 156.249786 155.949234 156.070282 156.270493 156.787827 157.771088 158.370468 159.183273 159.981384 160.850815 161.304108 162.008743 162.569580 162.710480 163.541214 163.674850 164.308472 164.801086 165.617798 166.463928 167.447174 168.502396 169.578232 170.877441 171.620285 172.648422 173.935013 175.756622 176.698380 177.523163 178.095047 178.562622 179.011398 179.336426 179.666672 179.544495 180.668304 180.836960 181.343765 182.059433 182.817337 183.044556 183.445343 183.762222 183.584152 183.355988 183.430847 183.149261 182.674225 182.822479 183.048294 183.422272 183.561447
110.490280 109.574074 108.407433 107.288300 105.793472 104.431686 103.570084 102.096352 101.439568 100.561081 99.380730 98.483017 98.161682 97.582939 96.775383 96.111465 95.669754 95.090630 93.936478 93.485413 93.068665 92.465034 92.050407 91.503990 91.426109 90.507500 90.034691 89.502663 89.121666 88.140900 87.344925 86.776596 86.294548 86.109367 85.790970 85.978378 86.047691 85.901855 85.855003 86.001328 86.171700 86.504425 86.917191 87.537643 88.181992 88.201546 88.217674 88.869118 89.552002 90.472672 91.260773 91.889145 92.621704 93.294373 94.085999 94.727547 95.247307 96.499504 97.269348 97.223053 97.170258 96.764641 96.389328 96.204391 95.959694 95.615746 95.425652 96.306030 96.406487 97.150459 97.805138 98.407822 98.573639 99.179131 99.457634 99.992035 100.217949 100.709564 101.146278 101.845634 103.038719 103.298981 104.242210 104.452431 105.288719 105.700386 106.572746 107.309181 108.069717 109.232567 109.422951 109.096138 108.257095 107.846428 107.449707 107.040352 107.132965 107.981361 108.770508 109.104683 109.944763 110.674583 111.540497 113.434227 114.575912 115.946854 117.536415 118.456009 118.841942 118.735748 118.874054 119.489746 120.467346 121.657562 122.901085 123.542755 123.889641 124.644882 124.788582 125.267136 126.487633 127.050728 128.121674 128.088547 128.178909 128.752472 129.301315 129.124329 128.808090 128.597397 128.387039 128.612427 128.070801 127.894051 127.747765 127.023972 126.798546 125.912338 125.157539 124.664459 124.587494 124.443909 124.142235 124.165726 124.324005 123.473648 123.199425 123.189232 123.602791 123.812401 123.767357 124.431740 124.659439 124.831955 125.277031 125.507385 126.026703 126.193893 125.770866 126.168457 126.761665 127.444801 127.866806 128.251114 129.593857 130.292908 130.989380 132.519928 133.835999 135.826614 137.703751 138.314423 138.854141 139.356430 139.323151 140.953033 142.481201 143.871750 145.883667 146.698334 146.671021 147.611649 147.577057 148.311523 149.373672 150.578568 151.085403 152.229614 153.818710 154.785080 156.231003 156.216232 156.489548 156.766373 157.563416 157.487976 157.405258 157.067535 156.929245 156.529755 155.947174 155.806458 155.235779 154.956833 154.187454 153.585098 153.601837 152.802444 152.467361 151.720825 151.136078 150.834671 151.230515 151.741180 152.122498 152.976151 153.897400 154.865387 156.257126 156.076645 156.286163 155.707184 155.400253 155.128738 155.583679 156.515762 157.525970 158.350769 159.176666 159.474594 159.612503 160.090530 161.156509 161.949493 162.484787 163.023865 163.409653 163.362747 163.598389 164.213181 165.448227 166.438568 167.469009 168.949722 170.352005 171.341888 172.308609 173.625076 175.259308 176.315369 177.543076 177.977753 178.186874 178.483887 178.781311 179.271729 180.033127 180.638504 180.749023 181.725266 182.260040 182.837128 183.502060 183.348938 183.314682 183.730972 184.077789 184.047745 183.689728 183.477142 183.502747 183.224899 183.882874 184.245071
